# .PCD v0.7 - Point Cloud Data file format
VERSION 0.7
FIELDS x y z
SIZE 4 4 4
TYPE F F F
COUNT 1 1 1
WIDTH 1405
HEIGHT 1
VIEWPOINT 0 0 0 1 0 0 0
POINTS 1405
DATA ascii
-1.0348797 -0.0060072495 -0.18620969
5.8271151 -0.0060199364 -0.36453262
5.8047242 0.041679751 -0.56402189
-7.8535209 -0.0060154153 -0.085278384
5.6880107 -0.21259183 -0.55202281
-1.0361311 0.13416348 0.47554159
-1.0146137 -0.01587755 0.31611165
6.0679092 0.24303438 -0.56409067
-0.95582741 0.12418968 0.57548088
-7.9108524 0.10593515 0.49606496
-7.6537042 -0.056243416 -0.56313527
5.8961387 0.10450901 0.33611169
-1.0139104 0.1212474 -0.0835687
-1.0108403 0.024463791 0.67545038
-0.79529625 0.0053738495 0.77589357
-0.99214143 -0.015898017 0.23634991
-1.0108458 0.083013043 0.59403813
5.6260409 0.063753538 -0.55207932
-7.835887 -0.013875137 0.39541504
-7.9038582 0.023067264 0.39616913
-7.8532329 -0.005865586 0.49545008
-7.8573198 0.1386129 0.99431455
5.8961563 0.10368203 0.61664671
-1.0038455 0.043649524 0.59409761
-0.84519809 0.16402555 0.89286411
-1.0750538 -0.13688682 -0.55153555
-7.6525474 -0.036553383 -0.56314045
-7.7745762 0.10481527 0.88285661
-8.1533909 -0.04658645 1.0257505
-1.0559018 0.13401382 -0.10420299
5.8477426 0.1241519 0.29675642
5.6262422 -0.1156226 -0.55196989
5.9456382 -0.0058275028 0.37475646
-7.9334188 0.12388627 -0.46481508
-7.9339671 0.095174633 0.86527181
-1.0108658 0.042906702 0.27735868
-0.99359304 0.13417932 0.5361169
-1.0166126 0.095721625 1.066601
-7.914927 0.22513475 -0.55119121
5.9054623 -0.015987378 -0.24412699
-0.95482475 0.33389699 -0.55910015
-1.0553086 0.13415796 0.45442033
-7.9349599 -0.0059331814 0.23504043
-1.0038632 0.02300333 0.31611502
5.7062263 0.04407341 -0.56401622
6.0617771 -0.062859297 1.0475245
-7.9038558 0.043624479 0.43700051
-1.0108941 0.044002756 -0.16325782
-7.9108686 0.045202814 0.23667578
-1.0108764 0.08221855 0.11363836
-1.0336119 0.0048048566 1.0051309
5.8228841 0.12651156 0.57397217
6.0659184 0.14438048 -0.55206507
6.0566559 -0.034786616 0.89361215
-7.9038525 0.10512044 0.4946312
-7.8134942 -0.21232936 -0.55140322
-7.8353262 -0.01326921 0.11514002
-1.015123 -0.067998834 0.93753552
-0.98064715 0.085343279 0.82009482
5.8652062 -0.015976818 -0.20242196
-7.6733131 0.33386347 -0.55829799
5.82623 -0.0059674745 -0.16544998
-0.98124397 0.020980531 1.0677502
5.8861837 -0.078136593 -0.5639962
5.9465322 0.13412669 0.19719851
-7.9038815 0.064871781 0.034333859
-7.8545618 0.12387128 -0.52447796
-7.7857618 0.063241906 0.75443614
6.0651312 -0.13686505 -0.55199254
-0.89453447 0.22412179 -0.55164021
-7.8944077 0.13401051 0.015937043
-8.2308197 0.12786031 0.95573461
-8.2021027 0.0072437758 0.80686659
-1.1137965 0.18306632 -0.55161554
-0.79720062 -0.02844632 0.79682899
5.9070468 0.2848348 -0.55236363
-1.033643 -0.0057845265 0.67703539
-8.1932697 -0.0098251384 0.95699072
-1.2560214 -0.11692474 -0.56352907
-1.0136256 -0.00056460599 0.19609573
5.9476457 -0.015894437 0.11528426
-7.8749232 0.045017429 -0.55114728
5.8815761 -0.21226592 -0.55209857
-8.1128273 -0.015009411 -0.55111653
5.9662108 0.32435092 -0.56410515
-8.0939455 0.045685541 -0.55113345
5.8844419 0.32162696 -0.55209923
5.8243232 0.30445313 -0.55209094
5.8452644 0.0041151592 -0.56401479
-7.7985864 -0.041062471 0.76708782
-1.0128655 0.10252181 0.81689888
-7.9108458 0.10243832 0.59752947
6.0455894 0.33393282 -0.55632019
5.8273048 0.18193844 -0.56405956
-1.0038917 0.084502824 -0.12445635
5.8961053 0.083039835 -0.18381448
-8.1355114 -0.13568577 -0.55108392
-1.0108571 0.083241791 0.41584188
-1.0337758 0.12408628 0.17625433
-7.7146463 -0.1760505 -0.56310052
-7.9039063 0.064955086 -0.34582731
-7.8145275 0.32550779 -0.56322354
5.8274722 0.13404837 -0.10409047
-0.87369287 0.0042752586 -0.55158478
-1.0756035 -0.014853232 -0.32348621
5.882997 0.12326467 0.37474722
-1.0735934 0.13409138 0.19673631
-7.814322 0.32426447 -0.55122316
-0.95476878 0.13394235 -0.38319442
-1.2539189 -0.038595323 -0.55154949
-0.97482979 -0.0058776438 0.31497225
-1.0126989 0.00076669571 0.2152821
-7.7328787 0.28346187 -0.55121785
5.9609761 0.22432801 0.80171484
5.8639879 -0.01584805 0.29670832
6.0656238 0.18345807 -0.56407517
5.9045639 -0.034554929 -0.56400865
-1.0038878 0.064186737 -0.064408109
-7.910893 0.064507097 -0.14532113
-0.99449682 0.13415407 0.43816128
6.1471033 -0.016711008 -0.56402874
-0.87516558 -0.015816847 0.77620631
-1.2140694 0.24337445 -0.55162472
-7.8131728 -0.036534991 -0.5631302
-7.9108543 0.04334341 0.45550802
5.6851788 -0.036229182 -0.55199414
5.8465185 0.12407423 -0.0042667366
-7.9108567 0.044003133 0.4175238
-7.9330478 0.12398386 -0.086593047
-7.6879444 0.12796737 0.99200785
-1.0569633 0.13407637 0.13831761
-1.0108854 0.064693533 -0.025741266
-0.95217669 0.13414387 0.39793187
-0.79431963 -0.095566735 -0.55156416
-7.8425717 -0.02010352 0.96639895
-8.2055635 0.15506323 0.83865935
-0.97647214 -0.0057742354 0.71581167
-1.0186889 -0.015929177 0.11608256
-7.8352895 0.084371172 -0.55115992
-1.1347064 0.2046445 -0.56361985
-7.8128066 0.17468475 0.76653254
-8.0542145 0.023013493 0.88791233
-1.0108801 0.063672766 0.055113148
-7.6356325 -0.050006654 1.0151865
-0.95364171 0.12399896 -0.16376786
-0.79461026 0.17946663 1.0417143
-7.9127784 0.20629425 0.7388137
-7.6561346 0.10362168 -0.56317639
-0.75568789 0.083839327 -0.55161291
5.9011426 -0.0023523406 -0.16458103
-8.1243324 -0.028812159 0.79451764
-8.0328054 0.011121894 0.88423091
-7.8378339 -0.0059543923 0.23508635
-0.95456094 0.1341075 0.25696248
-1.0108503 0.023122687 0.51742721
-7.8350754 -0.013667474 0.21450618
-8.1746836 -0.1547206 -0.56211406
-0.84692931 0.068646826 0.82529014
-7.6099229 -0.049947508 0.77229774
-1.1152891 0.28578317 -0.551642
-7.7755694 0.02434683 0.87968063
-7.9108982 0.10099572 -0.22406726
5.845531 -0.01593625 -0.044792436
-1.075012 -0.07588733 -0.56355131
-0.97536278 -0.0059599211 -0.0039232112
5.6237712 0.10329853 -0.56266439
5.8260126 0.1339858 -0.34662601
-1.0145495 0.13412772 0.33650956
5.8891177 0.065085106 0.015577241
-0.97503084 0.12406038 0.07471659
-8.113862 -0.17722115 -0.56307465
-1.1965884 -0.11438926 -0.55153352
5.8215899 -0.012752904 0.1551944
-7.8940492 0.13389742 -0.42239946
-7.9359999 0.12407736 0.27590773
-8.2025118 0.058662411 0.86458105
-8.0646658 0.026664982 0.88123935
5.8891068 0.10424374 -0.16354765
-7.8556933 -0.016020827 -0.10620511
-1.2762147 0.30224565 -0.55169499
-8.115818 -0.19558839 -0.56306976
-8.0512905 0.11423423 0.98649812
-8.0648012 0.061784253 0.9901697
-0.97425717 -0.1779089 -0.55153137
-7.8499179 0.042181652 0.88808012
5.9253001 0.12400737 -0.26495129
-7.8937984 0.13407211 0.25467801
-7.9349189 -0.17589585 -0.56308645
-0.7741732 -0.11464971 -0.55156052
6.0682864 -0.075781696 -0.55200845
5.9473362 -0.0059666689 -0.16468087
-7.9409523 -0.014087003 0.78966534
-7.9329448 -0.0061035701 -0.42542094
6.0034704 0.33393148 -0.56071854
-0.97385061 -0.0059652156 -0.024472514
-0.9004811 0.043264721 0.82098418
-0.73746175 -0.097119138 -0.55206281
-7.8581862 0.15436825 0.97115636
5.8241668 0.1251668 -0.44532713
5.9862342 0.14523421 -0.56406021
5.8451877 -0.015858321 0.25726232
-1.0336132 0.13392107 -0.46410653
-0.9806155 -0.055140737 0.87685555
6.145896 0.28436363 -0.55210632
-7.5815711 -0.0086790426 0.89601886
-7.9941483 0.08446157 -0.56314981
-7.9378443 0.32316828 0.85538667
-0.93828881 0.13402565 0.037026312
5.9620857 0.13411039 0.13366373
6.1270761 0.22272503 -0.55208927
-7.9137645 0.12145102 -0.44292027
-1.0956029 0.32496902 -0.55165333
-1.0553904 0.12397704 -0.24679159
-7.9349465 -0.0061133499 -0.46328592
5.9184766 -0.058470115 0.89781207
5.9253821 -0.006018308 -0.36440578
-7.9109097 0.047149792 -0.40338653
-7.913806 0.067619562 0.85721958
-1.0146329 0.13403475 -0.023865152
5.8664088 0.12405387 -0.083552361
-7.9038754 0.10155135 0.13491911
-1.0336545 0.13418467 0.55759031
-7.8333673 0.30400535 -0.56321675
5.937531 -0.095332094 -0.50560522
5.9242854 -0.015946075 -0.084412858
-0.95442712 -0.015814846 0.55797958
-7.9038773 0.025198596 0.098802269
-1.0108649 0.085755214 0.2955482
-7.9141393 0.36322722 0.86283594
-7.8679671 -0.035293307 0.97818357
-1.0108762 0.043814529 0.11440276
-7.9108405 0.083091542 0.67691427
-7.9345613 -0.17762679 -0.55108601
-0.9981395 0.12169299 0.67494351
-7.8373585 0.13402173 0.058356516
5.9113903 0.33393177 -0.55772042
-8.1549664 0.063381962 -0.55113411
-1.0108697 0.024741663 0.21422198
-7.862525 0.44209117 0.83049643
-1.2339948 0.1858623 -0.55160862
5.8961201 0.022803962 0.037161663
-1.0038582 0.046034113 0.39624956
-7.6353946 -0.048675645 0.88994241
-7.8553367 0.12401566 0.035164345
-7.9158778 -0.054215912 -0.55111903
-7.8624592 -0.026500024 -0.43152484
5.897512 -0.045365319 0.83514202
5.9058394 -0.016043581 -0.46198472
5.9063063 0.13402824 -0.18366721
-8.1596832 0.043865975 0.86942798
5.9264841 -0.015899615 0.095625035
6.0785666 0.064653605 0.80362344
-0.9000476 0.0048542446 0.82194871
-1.0727838 -0.0057695075 0.73600858
-1.0758884 -0.017165422 -0.56356639
5.8860312 0.12145317 -0.024689211
-1.0358052 -0.0058313818 0.49546829
5.9624352 0.13408564 0.037697364
-0.93725115 0.1339736 -0.26242691
-0.99741346 0.12294016 0.434986
5.8235283 -0.13530722 -0.55197746
-8.0355511 -0.13620074 -0.56309026
-8.1534576 -0.042582434 1.0288173
-0.95649171 0.13396254 -0.30486828
6.0663214 -0.1590848 -0.55198681
-7.7725902 0.043024719 0.88973659
5.8232903 -0.014941328 0.17502934
-1.0108891 0.04543164 -0.08510796
-1.2760794 0.0643984 -0.56155574
-7.7158957 0.0052621984 -0.56314719
6.0805979 0.15504515 0.83073962
-8.1552696 -0.05434534 -0.56310374
5.8646684 0.12413134 0.21676525
6.1451945 0.26347265 -0.56410092
-0.97489119 0.20592 -0.5636304
5.9201713 -0.016514482 0.83672315
5.9625659 -0.0059608915 -0.12287755
5.8258071 0.13412249 0.25726441
-7.863049 0.42127699 0.80135345
5.8960862 0.10292146 -0.48279625
-8.1426058 0.099369153 0.82276124
-7.910861 0.064471535 0.3554979
-7.8557405 -0.015901657 0.35569227
5.7450051 0.16453817 -0.55204976
-1.0142721 0.13420494 0.63576812
5.9637012 0.12688369 0.59721953
-0.93724066 0.13416323 0.47261161
-0.87512636 0.13895096 1.0005522
-1.0108939 0.024655282 -0.16395538
-1.0756742 -0.075929716 -0.55155122
-1.0158886 0.12205297 0.17567924
-7.9341655 0.48368561 0.85661584
-7.6536479 -0.21218793 -0.55181557
5.9452424 -0.0059767892 -0.20386685
-7.9108458 0.043909848 0.59625107
-7.7342043 0.043530874 -0.56315589
-7.9156356 -0.016092882 -0.38431942
-1.0108854 0.084001735 -0.023661112
-1.018571 -0.10143489 0.80243522
5.9265823 0.12396091 -0.44501013
-0.73656398 -0.19356348 -0.55154258
-0.77462107 0.28601685 -0.56366384
-7.9038596 0.045906238 0.37462932
-7.9728093 0.13411088 0.4143312
-1.0551113 0.13402441 -0.063154817
-7.8375645 -0.006051322 -0.22476113
6.1055846 -0.076189354 -0.55201072
-8.231039 -0.075427152 0.75358278
-7.6351929 -0.075455353 -0.56158572
-1.0537081 0.13398264 -0.22506665
5.9442644 -0.0059458544 -0.083945602
-0.8146897 0.1030701 -0.55161411
-7.8130345 0.12385178 -0.5511716
5.7056208 0.14292039 -0.55204165
-0.95420748 -0.0059859236 -0.10511859
-7.8954887 0.0047920127 -0.56313556
-7.9038701 0.10358995 0.21528488
-1.0138645 -0.0016229077 -0.12384621
-0.795883 0.28391081 -0.56366193
-1.254373 -0.076485269 -0.55153966
5.8676777 0.026719203 1.0684614
-7.9347668 0.12392292 -0.32276836
-7.6091909 0.0029171228 0.86310524
5.806457 0.26371291 -0.55207932
-0.82055455 -0.053951479 0.79171801
-7.9370513 -0.1573458 -0.5630911
6.1265755 0.10405391 -0.55205858
5.8890972 0.084638715 -0.30331421
-7.8943472 0.13397953 -0.1041514
-7.9109049 0.063112557 -0.32538301
-7.6111012 0.15680832 0.79044449
-1.0521599 -0.0057555996 0.78951579
-0.97450286 0.1240245 -0.064350806
-7.9518409 -0.015912777 0.31445828
-8.0361538 0.33386329 -0.552001
-7.8781333 0.15895934 1.0113931
-7.8726902 0.133944 -0.24226654
-7.9145985 -0.016056327 -0.24265502
-7.8343759 -0.014125705 -0.46574289
-1.213727 0.08449515 -0.55158377
-1.010888 0.10533427 -0.064903766
-7.8532224 0.12405235 0.17729411
5.9427376 -0.11615904 -0.56399
-0.73470455 -0.036024034 -0.55194753
-1.1576136 0.33389503 -0.55966538
-7.6936979 -0.035443407 -0.56313807
-0.8433547 0.14188184 0.91354221
6.1066847 0.0033366533 -0.55203134
5.8652468 -0.0058998107 0.09605667
6.0396585 0.043091707 0.77505153
-1.0108622 0.062352758 0.33442789
-8.1340961 0.2246362 -0.56317705
-0.96241653 -0.056808207 -0.5237869
5.9276342 0.12422437 0.57610655
-1.134497 0.26578334 -0.55163556
-7.9108953 0.067106724 -0.18212619
-1.0144131 0.13417412 0.51635855
-7.9538813 -0.01601065 -0.064849213
-1.0547491 -0.0059449244 0.055747569
-0.96241659 0.16175728 -0.50684285
-0.95687276 0.12494833 0.7905699
5.8864098 -0.049919538 1.0118587
6.0861039 0.26430371 -0.56409734
-7.8680229 -0.048040804 -0.45322996
-7.8741951 0.12417051 0.63572496
-7.9109135 0.025438549 -0.46315023
-1.0348296 -0.017856158 0.83743083
5.8960834 0.10441902 -0.52325469
-1.0131605 0.00079554081 0.65640444
5.7861948 0.26387435 -0.56407803
6.0647974 -0.056634855 -0.55201316
-0.77316433 -0.054894514 -0.56357604
5.9456882 -0.0057553728 0.65432984
-0.9735322 -0.015981007 -0.085684083
-1.0945613 -0.096317671 -0.56354475
5.8444061 0.26411018 -0.55183184
5.9459443 -0.005950436 -0.10173441
-0.82066977 0.019711243 0.8667134
-7.5812101 0.1647674 0.75605464
-7.8379898 -0.005865234 0.49651775
6.0065398 0.2037902 -0.55207664
5.8968997 -0.043852095 0.88367242
5.9061685 -0.016013253 -0.34443456
5.8860016 -0.19726543 -0.55196542
-7.8542118 -0.0060106898 -0.066947564
5.9062257 0.13414153 0.25544512
-1.1535133 -0.056293752 -0.56355131
5.8648925 -0.0059053446 0.074612595
-1.0359927 0.12403906 -0.0067287576
-1.0109092 0.023032796 -0.40280688
-7.9156837 0.30219048 0.7709173
-1.0149602 0.12254576 0.29900068
-8.0147648 -0.096636906 -0.55110174
-7.9108405 0.062410824 0.67595834
-0.81326205 0.082596071 -0.55160892
5.6270638 0.18475819 -0.55204743
-7.9759145 0.12583201 -0.024602594
-7.8385248 -0.006035096 -0.16185158
6.1227036 0.30484754 -0.56411016
5.8658824 -0.01584268 0.31748059
-8.1931286 -0.023465184 1.0090001
-7.5946136 -0.024266887 1.0104593
5.8460035 0.12424469 0.65644532
-7.9331174 -0.0058966717 0.37651628
-0.93688077 0.12545338 -0.1823204
-7.8944106 0.13388668 -0.46403491
-8.1558952 0.17849924 0.87932831
-7.8136592 0.14351431 0.73882353
-7.9140406 0.12246396 -0.14501083
5.8850842 -0.016023871 -0.38517898
-7.7941775 0.062852956 -0.55115706
-0.95162666 0.12402422 -0.06590648
-7.9331174 -0.050546575 0.9970625
-7.9738669 0.13393798 -0.26362616
-8.1140413 0.14442255 -0.56315762
-8.0145082 -0.2107282 -0.55139655
5.9264026 -0.01602851 -0.40396518
-7.6943269 -0.099837035 0.77228945
-1.0347056 0.13417391 0.51587927
-7.8166084 -0.15691188 -0.56309891
-1.0136052 0.0014529213 -0.084206074
-7.8607163 0.28198236 0.81654394
5.9081373 -0.17677863 -0.55199385
-0.99470013 0.13408104 0.15509887
-7.9938807 0.12861392 0.74862462
5.9045901 -0.015946077 -0.084034227
-1.2540194 0.20331152 -0.55161184
5.8651428 -0.0058481265 0.29638401
5.8891077 0.084878169 -0.14439772
-1.2337489 0.023688218 -0.55156678
5.9256091 -0.0059770853 -0.20463288
5.846612 -0.0058278041 0.37551418
5.9262438 -0.0058119339 0.43547782
-7.8943119 0.22210354 -0.56319171
-1.0039008 0.10408723 -0.26344961
5.9049034 -0.015847815 0.2968266
-1.0329218 0.13404489 0.01577289
-7.8727908 0.063136309 1.0411657
-0.86523587 0.060418524 0.86829513
5.8961143 0.082789682 -0.043032769
5.9458532 -0.0058169188 0.41577563
5.8315692 0.19328265 0.80385852
-7.9038701 0.043637291 0.21503052
5.8267775 0.24014111 0.8025226
6.1045179 -0.0095032519 0.97396505
-7.977891 -0.097630747 -0.56310391
-7.6554604 -0.09807165 -0.56312442
-7.913703 0.17001143 0.99537104
-7.913321 0.12122866 0.5761568
-7.9140759 -0.015855182 0.53696698
-1.0127283 0.15477654 0.96811336
-1.0367982 0.13408637 0.17666408
-1.0146172 0.1340811 0.15572602
-7.8723845 0.10184464 0.90958488
-0.8085286 0.10260734 0.7758522
-7.9108686 0.024361081 0.23450899
-7.7934041 -0.035486579 0.73886842
-1.0108931 0.10300417 -0.14460294
-7.9741297 0.12701219 0.59551948
-1.0733134 0.13399819 -0.16445974
-0.99731249 0.24007492 0.80105984
-7.8949556 -0.19556043 -0.56308395
-7.9109159 0.082405992 -0.50262994
-7.8928747 -0.015912201 0.31554368
6.1468968 0.32534626 -0.56341088
5.8853755 -0.01595171 -0.10549261
5.9451628 0.12404889 -0.10440926
6.0855246 0.30338067 -0.55210739
-0.95300132 0.12415326 0.43429998
5.8678122 0.13416201 0.33558741
6.1060209 0.16336472 -0.55207258
-7.9956708 0.20263138 0.76678264
-7.8533454 0.13414994 0.55555522
-0.93065244 0.15612099 0.77708888
-8.1773119 -0.074983001 -0.56090873
6.0668015 -0.043732591 1.0286291
-0.95357323 -0.0058928886 0.25546893
-0.79164213 -0.097736999 -0.56356376
-8.0543661 0.30398718 -0.5512026
5.9011817 -0.00076991855 -0.42385596
-7.693048 0.32631618 -0.56323147
-8.0647697 0.010331872 0.9886561
-7.8549595 -0.0060411515 -0.185003
-1.2552679 0.02333268 -0.55156535
-0.79505372 0.28390411 -0.55166203
-1.0129193 0.0015566347 -0.10446291
-0.95463473 0.13403457 -0.025752069
-0.79450929 -0.037099175 -0.55157924
-7.9038482 0.043620199 0.55539858
5.9476714 0.13400254 -0.28407517
-7.6594543 0.15501554 0.81582206
5.9634762 -0.014413159 -0.10401072
-7.903892 0.084287703 -0.12378442
-0.99478537 0.10186957 -0.56360227
-0.99599069 0.12256915 0.73616797
-1.0730879 0.2022973 0.80138117
5.9315844 -0.077073708 -0.52472937
-7.9348216 -0.015999943 -0.023724373
-7.6171665 0.0031981096 0.86987585
5.8476629 -0.0058892132 0.13747315
6.1473279 0.28434503 -0.5641064
-1.0038912 0.023903977 -0.12220271
6.1054053 -0.022979675 1.0078632
-7.8679919 0.38285398 0.84219021
-7.9108648 0.023452161 0.29738349
6.1023803 0.1676995 1.0308068
-7.9356585 0.24370141 0.85665327
-0.93842411 -0.0059027397 0.21699299
-7.9747715 -0.0059368773 0.27441806
-1.0752057 0.12577516 0.21489681
-1.1143678 0.28408086 -0.56364161
-0.8150872 -0.0093730753 0.93519682
-7.8564034 -0.015994474 -0.0040527061
-0.95464867 0.061967041 -0.5515945
-8.202734 0.10392175 0.86439908
5.6253443 0.24597338 -0.55232126
-7.903892 0.06311319 -0.12454332
-0.9553479 0.13398375 -0.22272801
5.6871314 0.24218237 -0.56406611
5.8079243 -0.15635924 -0.56397104
5.9037943 -0.11797377 0.80105841
-7.9527755 0.12407265 0.25791276
5.7637396 -0.11865235 -0.55197793
5.8229947 0.12526871 0.49648634
5.765305 0.16177516 -0.56405038
5.9253755 0.12410589 0.11693567
5.846559 0.12422413 0.57676542
-7.5944924 -0.0088343481 0.93449759
-0.98063767 0.16018522 0.96238434
5.9990926 -0.015561349 0.82052976
-0.8997736 0.1018392 0.81623375
-1.0529784 -0.016022554 -0.24516895
-1.014647 0.13406037 0.075451083
5.6853461 0.32329032 -0.55208689
-7.8419576 0.1341238 0.45403552
-1.0153825 0.16363354 -0.56361693
6.0640044 0.24334189 -0.55209053
5.9259014 -0.0057552727 0.65510291
-1.2768556 0.28327969 -0.56161785
-7.7717719 0.0043873093 -0.56314337
5.8275361 0.13422385 0.5760603
-0.83570802 -0.055906974 -0.56357175
5.9374118 -0.11382294 -0.52659768
-1.0722952 -0.006011568 -0.20221846
5.8842249 0.13422364 0.57412237
5.889102 0.024015922 -0.24315974
-0.93467069 0.1044763 -0.55160677
5.7640219 -0.17572096 -0.56396323
-7.6547322 -0.062783644 1.0474234
-1.0361209 -0.0059084981 0.19657302
-8.2332726 -0.060848262 1.046393
-7.9038534 0.083917513 0.47571707
-8.1746683 0.0030674066 -0.56263655
-7.9038916 0.044702359 -0.12477181
-7.9038968 0.10416498 -0.2037285
-7.8948011 0.081680767 1.0613004
-0.93445987 0.12641801 -0.1440012
-7.9339552 -0.0059075742 0.33427626
-7.8531933 0.12398475 -0.084705204
-1.0143224 -0.015965421 -0.024475193
-7.8749609 -0.015969032 0.094921857
-1.1557996 -0.15722661 -0.56352514
5.9029136 0.12127759 -0.34385777
-7.8142476 -0.052277651 0.76678252
-7.9109125 0.042782117 -0.44703746
-7.8364401 0.13899131 0.93089634
-1.0108559 0.10444078 0.43604717
-1.0342877 0.13407598 0.13634047
-8.2152185 0.02298083 0.75245178
-1.1136653 -0.077343166 -0.56354845
-0.96241647 -0.074680783 -0.52360612
-7.8571391 0.13396937 -0.14424643
-0.86112428 0.12492612 0.77626103
-8.1126003 -0.055489182 -0.5511061
-0.83442163 0.22197311 -0.55164349
5.8671269 0.044961255 0.81911504
-8.1147633 0.10388324 -0.5511471
-7.9165959 0.18254468 0.77180499
5.9010448 -0.00053573673 0.35490009
-7.9038415 0.042840075 0.65629113
5.9056106 0.13407449 -0.0043676123
-1.0109146 0.044704288 -0.48352119
-1.0122899 -0.056419495 0.96308231
-1.0108978 0.043606382 -0.22208029
-1.0135611 -0.049823564 1.0121911
-1.0144495 0.24305718 -0.55163741
-7.8676381 0.15220711 0.97895497
-7.8732901 0.12392248 -0.32565099
-0.83500922 -0.035781451 -0.55157697
-7.9108748 0.023397338 0.13499258
-1.0338295 0.12407584 0.13575119
-7.6357875 0.083274111 -0.56120813
-7.8497481 0.13763112 0.65424716
6.1639805 0.042340335 -0.56291801
-1.0148561 0.12112372 0.49671692
-0.83278078 -0.11629388 -0.56355637
-7.9108663 0.10185389 0.27765152
-0.73609102 0.24490008 -0.56151354
5.8247991 0.13407446 -0.002925582
-7.8545961 0.13406284 0.21802089
-1.0157709 0.13419965 0.61531198
-0.83543462 0.28279594 -0.55165917
-7.9038486 0.081892721 0.55429107
-7.903852 0.065604314 0.49766567
-7.8762655 0.12378872 1.0359781
-1.2760439 0.12318374 -0.55180991
-8.12432 0.14197502 1.0051775
6.1054869 0.067893408 -0.55225968
5.896143 0.023338793 0.39600334
-1.0038761 0.045230929 0.1167118
-7.6533051 -0.042781215 1.0289867
-7.9108715 0.065327585 0.19427119
6.0640335 0.14558932 -0.56406528
-8.0152845 0.11530402 0.93572825
5.9249668 -0.015847981 0.2957885
-1.0333004 -0.0058159735 0.55514103
5.6635962 0.22427051 -0.55205995
6.0928836 0.10401999 0.83689547
-0.96241528 -0.077607296 -0.50476956
-7.9038777 0.064349256 0.09610723
5.8252907 -0.0059334151 0.014542043
-7.8619299 -0.0073308824 0.86322582
-7.8538799 -0.0060982653 -0.40639725
5.8055196 -0.058821831 -0.56399602
5.8960862 0.064025849 -0.48392636
-7.8627229 0.46820146 0.83085185
5.8961644 0.045214701 0.73577332
-1.0347772 -0.015862223 0.37591079
5.8445063 -0.015863834 0.23590603
6.0251551 -0.095911309 -0.56400049
-7.6331286 0.08351098 0.87379903
5.944037 -0.0060027256 -0.30437067
-7.8388138 0.13414015 0.51732177
-7.9350619 0.12406151 0.21438895
5.7843676 0.042877838 -0.55202091
5.9459529 0.12415189 0.29483944
-8.0150442 -0.036657877 0.7388829
-8.0141668 0.14208052 -0.55116343
5.7659907 0.0040069544 -0.55200964
-7.8382268 0.13397916 -0.10663014
5.9259381 -0.015992697 -0.26514539
5.9226403 0.0076266844 1.004745
5.9321876 0.23843238 -0.52915895
-7.9038801 0.08233726 0.054502171
-7.976892 -0.014298912 -0.081249774
5.8875856 0.13403773 -0.14655107
5.8868518 -0.2138593 -0.56117833
5.8472366 0.33393264 -0.55313337
-0.99364769 -0.063404813 0.87715662
5.8961101 0.084304124 -0.10645696
-1.053216 0.12407587 0.13628511
5.8240957 -0.014582152 0.59616059
-7.837182 0.13408925 0.31998098
5.945837 0.28576788 -0.55209392
-1.155605 -0.075699456 -0.56354618
-7.9339972 -0.0061082118 -0.44339085
-7.6947513 0.0033357958 -0.55114806
-7.6531334 0.16326158 -0.55119199
-7.9139338 -0.096957944 0.73889202
-1.0364776 -0.015851734 0.41659752
5.8890939 0.062281195 -0.36525267
5.8468008 -0.0060443673 -0.46388122
-0.85604745 0.3338992 -0.55243051
5.704556 -0.097267121 -0.55197966
-7.8733511 0.12411346 0.4145419
-7.9147787 0.00054022745 0.5752914
-7.8352742 0.12695445 0.27831683
-0.99504721 0.1340656 0.095342539
-7.9109015 0.043839749 -0.28323272
-7.8743596 -0.19631642 -0.55108505
-0.93765557 -0.0060014529 -0.16563091
-7.9039044 0.10407714 -0.32389721
5.8660412 -0.015879342 0.17538215
5.8891196 0.10418141 0.034851097
-7.8540058 -0.015974067 0.075003296
-7.9737606 -0.0059505953 0.21663199
-0.9367764 -0.0058775824 0.31447002
-7.7556705 0.06441658 0.89069068
-7.9108663 0.08305946 0.27688193
-1.003893 0.1033091 -0.14379741
-1.0108815 0.10150176 0.034973647
6.1634645 0.26391399 -0.55218148
5.8844395 0.12261295 0.056440789
-1.0712998 -0.0057898886 0.65698421
-1.034356 -0.17754821 -0.55152762
5.8890948 0.062074527 -0.34445095
5.8891573 0.087806985 0.87007827
-7.8364778 -0.013628825 0.3754119
5.8868032 -0.068060704 0.97393698
-8.2133284 -0.11037724 0.75286418
-7.9393506 -0.038615502 0.81593084
-7.9323988 -0.016118176 -0.48203906
6.0326152 0.071091607 0.86742061
5.8961401 0.061444517 0.35509741
-1.0108687 0.063493155 0.23494934
-0.83437532 -0.078890778 -0.56356591
-0.93969864 -0.080071822 0.80181456
-0.93641454 0.12577662 -0.024683412
-7.893929 -0.019497113 0.73407966
5.7053347 0.28259036 -0.55207765
-1.0356506 0.0057270075 1.0340097
-7.935833 -0.0058657574 0.49639273
-0.93626195 0.12558781 -0.30516642
-7.903862 0.023417136 0.33794463
-7.8522778 -0.005922101 0.27638212
-7.7547884 -0.17528544 -0.55109811
5.6859174 0.18484227 -0.56405121
-0.84599292 0.13945507 0.93708175
-7.913465 0.12817436 1.0429645
-0.99823791 0.12257028 -0.32534054
-7.87714 -0.0059738611 0.07624501
-7.910881 0.025856772 0.036191206
-0.95323193 -0.015851261 0.41681641
-7.9038868 0.022225166 -0.044380412
-1.1949003 0.044387713 -0.56357461
5.8961153 0.084574595 -0.027049931
5.8873076 -0.016013613 -0.34546652
-7.6936245 -0.078654766 -0.56312698
-0.99420464 -0.015918624 0.15652135
-7.7754197 0.046366815 -0.56315404
-0.89462364 -0.015426992 -0.56357837
-7.9109049 0.082854189 -0.32292023
5.8653545 -0.015864344 0.23352316
-7.8759689 0.48446944 0.856049
-8.1243172 -0.056285374 1.0396636
-0.97254503 -0.015975336 -0.063718833
-1.0108403 0.044910379 0.67572087
-8.1545696 -0.056718782 -0.55110312
5.961132 0.13398702 -0.34452555
-8.0546732 -0.074606642 0.73889524
-8.1740904 -0.022823466 1.0090494
-7.9038944 0.043288972 -0.16372572
-1.0038518 0.024049846 0.49489745
5.9456153 -0.015817238 0.41454983
-7.9349494 0.12413926 0.51579964
5.9643669 -0.037089251 0.81732219
-7.8530755 -0.0058606933 0.51441181
-7.9038568 0.023481756 0.4152717
6.0878587 0.22277257 -0.55208677
-7.935185 0.46355441 0.77671939
5.6852345 -0.17765054 -0.55195767
-7.8539639 -0.077846721 0.77441186
-0.87350255 -0.033177048 1.0156482
-7.6883607 -0.0087596094 0.91534823
5.8253703 -0.0058280267 0.3750644
-7.8549685 0.12409808 0.3545948
-8.1243181 0.16803157 1.0332149
-1.013009 0.00065019791 -0.264936
-1.048708 0.19844991 -0.48792738
-8.033145 0.11691167 0.89700806
-1.0143112 -0.001002931 0.15609294
-1.2764269 0.082819402 -0.56178981
6.1454897 0.22442074 -0.55209082
-8.1874285 0.064005315 0.8339209
-7.83639 0.20469737 -0.55119097
-1.0749502 0.30394676 -0.55164927
5.8961067 0.083622798 -0.16339378
5.9249215 0.12420335 0.49469814
5.8277359 0.13405859 -0.06445653
-7.9108391 0.025419211 0.6950447
-0.73615062 0.20581488 -0.55193758
-8.0541964 0.11901514 0.95574176
-1.0345706 0.025811974 1.0051078
-1.0344661 -0.0060274117 -0.26436585
-1.0584531 0.20379746 0.80133921
-0.83847976 0.0021462513 0.83658659
-7.6527829 0.12498514 -0.56318212
-0.75344628 -0.015535058 -0.5515874
-0.93570703 -0.014107351 0.23536818
5.8869319 0.13394023 -0.52438921
-0.88942242 -0.043123174 1.0284296
-0.77256358 0.32524341 -0.55167413
-0.99397498 -0.016058182 -0.38441822
5.7046647 0.30433208 -0.56408328
5.9256368 0.12398195 -0.36344302
-0.8738842 -0.077513844 -0.56356376
-7.6541433 0.0021183346 -0.55115038
-7.9108596 0.02360178 0.37563339
5.7843294 0.24283217 -0.56407249
-8.1601028 0.083648607 0.86997277
-1.2542783 0.26462749 -0.56362766
-0.96247017 -0.072120324 -0.48526159
-8.1130323 -0.17489485 -0.55107528
5.846283 -0.21215205 -0.5615381
-7.8345881 0.11152535 0.91619515
-1.0108455 0.02349863 0.59297317
-0.97323126 -0.015923278 0.13806598
5.9445763 0.30350691 -0.56409842
-8.0557384 0.11840079 0.97548532
-1.0758625 -0.093825191 -0.55154657
-7.8968077 -0.015147335 0.74886978
5.9282799 0.33393303 -0.55319142
-7.715766 0.24341485 0.75357413
-7.9717994 0.13414448 0.53677255
-7.6549821 0.14607221 1.0115526
-7.8557196 0.13403654 0.11606044
5.8276854 0.13407962 0.017018287
-7.8380709 0.13392325 -0.32336462
5.9639239 -0.013531331 -0.0033286195
-0.89502567 0.24476916 -0.55164552
5.7433496 0.10412841 -0.5640341
-7.8640103 0.043117538 0.81773496
-7.6597185 -0.051890511 0.77195603
-7.9353409 0.12399479 -0.044191241
-0.77342898 -0.076100834 -0.5635705
5.8643208 0.12412614 0.1965961
-8.0557146 0.11513015 0.93640941
5.9429035 -0.0059249341 -0.002830981
-7.6519675 0.0033337807 0.80127203
-7.9108458 0.085569099 0.59791434
-7.9108605 0.023896735 0.35496843
-0.98192 -0.057054888 0.90965903
-1.0540625 0.12416364 0.47644168
5.7452478 0.24499683 -0.5520705
5.926445 -0.0058227475 0.39356196
-7.8755817 -0.10760279 0.74132448
-7.9124894 0.134093 0.33606598
6.0598493 -0.048549186 1.0200211
-0.99375898 0.13418971 0.57632631
-7.936275 -0.015943471 0.19519106
-0.93518484 0.12724681 0.65422827
-1.2529668 0.28462783 -0.56363291
-8.0536089 -0.037292559 -0.56311458
5.8862672 -0.015811918 0.43632218
-7.7563844 0.10748391 0.89397407
-8.0962038 0.0041347095 -0.55112261
-7.7950244 0.24344803 -0.56320357
-1.0351893 0.13400358 -0.14431161
6.1630235 -0.17558534 -0.55201977
-1.0138435 0.12073105 0.15848757
-1.0038369 0.10362288 0.73432726
-1.0039172 0.084692642 -0.52154511
-1.0330994 0.13390511 -0.52600795
-0.99810785 -0.0027691938 0.7898522
5.8278217 0.13419802 0.47589785
-7.9038882 0.083169825 -0.065603234
5.8891006 0.063535094 -0.26497379
-0.99302155 0.13417473 0.51826048
-0.83349049 0.2233967 -0.56364393
-7.9038587 0.084421538 0.39602545
-7.903842 0.086319201 0.65563035
5.9262137 0.16291724 -0.56406093
-0.81892729 -0.026274107 1.0044949
-1.0772243 -0.013934487 0.29618123
-7.7552166 0.22458397 -0.55120128
-7.9496145 0.22449011 0.83633238
-1.0342883 -0.005949364 0.03814264
5.9260426 -0.015915321 0.034755576
-1.013907 0.10446076 1.0050859
-7.9108725 0.06477876 0.17631763
-1.2527323 -0.015753081 -0.56355536
-1.0533851 0.1239107 -0.50392908
-7.9351912 0.13404137 0.13638665
-7.8751969 0.12403064 0.093625151
-7.9538088 0.36385128 0.81628048
-7.9140987 -0.0017069728 0.25620672
-0.99702483 0.33389851 -0.55232215
-8.0163641 0.18307334 -0.55117387
-7.9513354 -0.076117396 -0.5455333
-7.7926273 -0.078165077 -0.56312078
-7.9017944 -0.057750247 0.78498429
-7.5815806 0.14684854 0.79679912
-7.7146683 -0.076369993 -0.56312621
-0.95124817 0.13417399 0.51457417
-1.0339935 -0.0058008037 0.61395431
-7.9143057 0.12144713 0.49526137
-1.2743107 -0.11856547 -0.55187953
-7.8153639 0.11166141 0.91627157
5.824338 0.13410306 0.13519543
-7.8347864 0.12683441 0.74081761
5.9046125 -0.015770776 0.59542918
-7.914494 -0.016118726 -0.48451525
-7.9149742 -0.081750631 0.79747617
-7.9108548 0.10363257 0.45588383
-7.7535315 0.024807313 -0.55114979
-7.6858168 0.18237069 1.047876
-1.0316024 -0.17555042 -0.56352836
5.8890915 0.063370109 -0.40251383
5.9018807 0.12164669 0.2169586
-7.6940408 -0.13139434 0.75349694
-0.73817027 0.10157027 -0.55161864
-0.9332391 0.33389491 -0.55945104
-7.6524472 0.12620579 0.87496442
-1.0145441 7.9644342e-05 -0.38255918
5.7253118 0.16733603 -0.56404924
-1.0108722 0.025526533 0.17568219
-1.0558326 0.12420958 0.65459222
5.7247214 -0.017552376 -0.5640015
5.9017034 0.12208185 0.55563539
-8.0732737 -0.096166179 -0.55109817
-7.8940001 0.1341289 0.4748016
5.9459987 0.1241314 0.21543032
-1.1739051 -0.13484073 -0.55152977
5.7065864 0.12291381 -0.55203658
-0.8461442 0.15839067 1.0038456
-1.0150812 0.12183508 0.21707325
6.0468454 -0.037482336 -0.564017
-0.91577011 0.18473968 -0.56362867
5.8469868 0.12401766 -0.22355917
5.7678299 0.12321189 -0.56404054
-1.0109106 0.043297756 -0.4232063
-1.0107192 -0.058259994 0.89205754
-7.9346538 0.12402596 0.076629043
-7.9755635 0.13413353 0.51605988
-7.9108958 0.10454401 -0.18441737
-1.1149356 0.30505341 -0.56364697
5.8239346 0.12520659 -0.34270197
-8.1760626 -0.1954257 -0.56120205
5.6663685 0.069200248 -0.55236053
-7.9126425 0.13400032 -0.023230504
-7.854907 0.13411994 0.43931305
-8.0342741 0.10388704 0.88242674
5.946157 -0.015591793 -0.54636973
-7.9109173 0.044857662 -0.52415019
5.7666864 -0.09566427 -0.56398404
6.0271196 0.021328706 0.79685885
5.8961215 0.10632332 0.072359547
-7.910871 0.043000124 0.19589281
-7.6376581 -0.077454723 -0.55144417
-8.1333447 -0.21408884 -0.56026107
-7.9341063 0.12405663 0.19549468
-7.9038854 0.044806913 -0.023173649
-8.0343008 0.022966892 -0.56313139
5.7264357 0.083997384 -0.55202782
-1.1924973 -0.11536828 -0.56353354
-0.95475543 -0.015877107 0.31666857
-7.898737 -0.00058397627 0.31618476
5.8852239 0.13400725 -0.26465002
-0.87429363 0.023221161 0.77701694
-1.0346376 0.1341947 0.59649634
-7.9331613 0.028961541 0.86437178
-1.2147846 0.26342031 -0.56362987
-1.173697 0.12162627 -0.56359589
-1.1738111 -0.17551765 -0.56351924
5.8891325 0.022794841 0.23656063
-0.91584504 -0.17583284 -0.56353569
-7.9710917 0.13391748 -0.34314713
-0.99424702 0.13416383 0.47602886
-0.75403154 -0.058435354 -0.56357634
-8.1151724 0.23969091 -0.56318218
-1.0131154 -0.015867399 0.35542569
-1.0108837 0.022579936 -0.0028389639
5.8275595 0.13398463 -0.32683918
-0.97350657 -0.0058571077 0.39454213
5.866559 0.12415133 0.29419386
-8.124321 -0.0090110749 0.976008
-0.95588082 0.13421039 0.65577745
-0.87313378 0.15693684 1.0200435
-0.97395581 -0.015964366 -0.021173069
-1.1328632 0.24358894 -0.56362998
-7.8346462 0.084189847 0.99530166
5.8446674 -0.015786853 0.53427923
5.8276973 0.23894848 0.81557173
6.1064672 0.26493049 -0.55209881
-0.992998 -0.015996 -0.14341731
-0.95480484 0.12416438 0.47740319
-8.1243267 0.12750387 0.89859712
5.9463606 -0.015914841 0.036225002
-7.9755836 0.12593204 0.53528637
5.9641986 -0.01398823 0.11636252
6.1039548 0.043987274 -0.55204165
5.8453546 0.12408439 0.035142649
-7.8578186 -0.030368617 0.8997854
-7.8945537 -0.015781118 1.0383846
-7.8534551 -0.016077323 -0.32522747
-0.84606791 -0.036288667 0.89551806
-0.91647851 0.083941936 -0.56360263
5.8435264 0.025133112 -0.5640201
-0.97514313 -0.01603232 -0.28453693
-8.1877041 0.043630902 0.83610415
-7.9038715 0.083660021 0.19510905
-7.9926548 -0.035570666 0.73888117
-7.9939098 -0.057605363 -0.56311321
-0.97437608 -0.0059333923 0.098883517
-7.8375745 0.13394891 -0.22393769
-0.99466693 0.26336017 -0.5516783
-1.05583 0.1240711 0.11780193
-7.7548132 0.0082202414 0.98927861
-1.0345707 0.10775898 1.0050777
6.030602 0.16276111 0.79652423
-7.6882758 -0.035981495 0.87809503
-0.97508699 0.12403994 -0.0045343181
-1.0542903 -0.016048605 -0.34611163
6.1035924 -0.029676566 0.85745877
-7.9346633 0.20339267 -0.5511843
-7.9339175 0.12409808 0.35613519
-1.0038404 0.10259584 0.67703187
-0.89300215 0.025797725 -0.55158913
-7.6563902 0.18381208 -0.56319708
-0.87278116 0.064352512 -0.5516004
-7.9109125 0.10197683 -0.44444486
-7.9150481 0.045994561 0.77468944
-7.9403496 0.024727374 0.99484187
-7.9718227 -0.029506113 0.95290518
-7.835701 0.12667969 -0.22328988
-7.7924633 0.085532747 0.87990057
-7.9038391 0.084838368 0.69554847
-7.8943324 0.10513417 -0.56316155
-8.1935415 0.147478 0.77665609
-1.0108811 0.025272591 0.036730904
-1.0038893 0.1044907 -0.084652811
-7.8980017 0.0850484 -0.54684848
5.9441328 0.2845175 -0.56409347
-1.0108443 0.10376789 0.6176163
-1.0139089 0.20217986 -0.55162692
5.6453228 0.18452629 -0.56404853
5.8249083 -0.014701346 0.4951396
-7.9038587 0.10441531 0.3981387
-7.9109139 0.083935961 -0.46568751
-1.0330863 0.12417921 0.53643978
-0.97610658 -0.015877616 0.31511208
-7.9038858 0.065308839 -0.024981532
5.8665094 0.062633745 -0.55203128
-1.0108865 0.084741697 -0.042817671
-0.79678982 0.13992049 1.0011303
-1.0108776 0.084441282 0.096474633
6.105824 0.30261236 -0.55210847
-7.6354241 0.10928003 0.82583112
-1.0348182 -0.0057795611 0.69630325
-0.93689454 0.1256227 -0.34530053
-7.9352045 -0.0058557973 0.53498679
6.144073 0.062487192 -0.55204898
5.901155 0.12170438 -0.2238567
5.9073839 0.10025641 1.0287976
-7.9108868 0.06641122 -0.043196619
-7.9141288 0.12785679 0.74065018
-1.0398184 -0.051984232 0.77719259
-7.9516029 0.17772116 0.97662318
5.8643613 -0.015966911 -0.16399619
-7.8355308 -0.015649686 0.74886602
5.847086 0.13419279 0.45532283
-1.0038841 0.10362395 -0.003144189
5.6466184 -0.21161531 -0.55194646
6.0252461 -0.11692504 -0.5519951
-7.8934374 0.34220982 0.77243549
-7.8949714 0.28266251 -0.56173497
-7.8933868 -0.079412036 0.79359668
-7.9109173 0.064307451 -0.52393562
5.6279998 0.32213983 -0.56115752
-7.9132805 0.13407223 0.25552821
6.0662065 -0.017068859 -0.55202347
-1.0351278 0.13395713 -0.32431892
-0.97254825 -0.0057644066 0.75383312
-0.81309205 -0.17595486 -0.56354219
-8.0121498 -0.15686816 -0.55108637
-7.8557725 0.16337921 0.77410531
-7.9108877 0.022881988 -0.063824922
5.8460164 -0.17417696 -0.55196881
6.0892773 -0.047203507 1.0250275
5.8657284 0.12418865 0.4388541
-7.9955564 0.11709195 0.89683515
-0.9930582 0.13405515 0.054780159
-8.074481 0.30237323 -0.55120087
-0.97423333 0.12423629 0.75649536
-0.97460294 0.30474564 -0.56365591
-7.8393469 0.1361786 0.57934481
-0.75218761 0.14140561 -0.55162799
-7.910892 0.083222613 -0.12319963
-7.8356247 0.082735822 0.87536395
5.74405 -0.057073094 -0.5639925
-1.0109059 0.10299453 -0.34437022
-1.0131568 0.18452388 0.85689396
-0.79754996 0.1787301 0.88010031
-7.9038768 0.085144497 0.11425732
-0.86655158 0.10144398 0.86831748
5.9428215 -0.015884003 0.155825
-7.8967748 0.15187658 1.0224546
5.9433532 0.12402282 -0.20540063
5.6244531 -0.095707223 -0.56232107
-0.79169482 0.14725256 -0.55162698
-8.1961632 -0.020588391 0.86037081
-1.2158027 0.12413929 -0.56359386
-0.95471871 -0.005897705 0.23682538
-7.935359 0.19074014 0.87632841
-7.9736228 0.062791228 -0.55114555
-7.9746785 0.12783602 0.74831098
-1.0142778 0.12122161 0.55524379
5.78613 -0.11574775 -0.56398004
-7.9038954 0.062200557 -0.18309876
-7.9338784 0.50922221 0.83689529
-0.9537676 -0.0059498306 0.034768011
-8.1755543 0.12392298 -0.55138278
-7.910881 0.065326326 0.036908031
-7.671411 -0.063029535 1.0480888
-7.893805 -0.015916694 0.29815418
-8.1558685 -0.063281812 1.0478281
-7.8396997 0.13392806 -0.30467612
-8.0326643 -0.016836632 -0.56312126
5.9439311 0.13418873 0.43766055
-7.8347359 0.11057251 0.95678455
5.8891511 0.083895884 0.53495449
-7.8734155 -0.016051093 -0.22317092
-0.87445354 0.12238692 -0.56361526
5.9461532 -0.096124254 0.80099255
5.9375858 -0.076192871 -0.50330794
5.9375844 -0.077871859 -0.52304167
5.9262252 0.12401229 -0.24589074
-7.8556423 -0.17751321 -0.55109107
-7.8936849 -0.016009735 -0.062478453
5.8649716 0.13410552 0.11665766
-1.193992 0.22427014 -0.5636211
-0.75298399 0.20394903 -0.56364405
-1.010848 0.062420197 0.55622095
-1.0547012 -0.0057585561 0.77810585
-7.9535027 -0.015866125 0.4953171
-0.97297335 0.12398814 -0.20533812
5.8656402 -0.0058738934 0.19650327
-8.0950899 0.16430244 0.75365102
-7.7148199 -0.19707856 -0.56309503
-7.6945729 0.12224267 -0.55117875
-7.6362395 0.17835331 0.88061351
5.9441619 -0.0058116768 0.43612576
-7.7923923 -0.1762501 -0.56309551
5.9187789 0.17800641 0.90862483
-7.9748831 0.13394842 -0.22315574
-7.9108777 0.1031656 0.095266491
5.9645786 0.08260069 -0.55204266
-0.93625194 0.18590538 -0.56362772
-8.013135 0.2223196 -0.56318414
-0.90118229 0.18190758 0.82150817
5.9373884 -0.034296341 -0.44549122
5.8891296 0.08384712 0.195722
-7.910903 0.085704684 -0.30347851
-7.9166198 0.10929926 1.0039911
-7.9108605 0.043540929 0.35583746
-7.8738599 0.065127976 0.86058009
-0.95465684 -0.0058881138 0.27399889
-1.0131546 -0.11530539 -0.55154508
-7.6620498 0.0039993832 0.80983078
-7.7359176 0.2583603 0.75421995
-7.7342753 0.20299962 -0.55119705
-7.9038715 0.10546951 0.19459686
-0.99468249 0.22205551 0.80220729
-7.8666387 0.092959478 0.90688932
-8.0561323 -0.13636556 -0.55108887
5.9461551 0.12405891 -0.065569066
-8.0252857 0.17884611 0.7666924
-8.1342525 -0.016378168 -0.55111486
5.6466303 -0.016976696 -0.55199665
-7.9936476 0.2049816 0.73814595
5.7653232 -0.057900146 -0.55199367
-7.9528604 0.13409793 0.35595021
-7.8565264 -0.036922708 0.73725665
-7.8583221 -0.017340776 -0.48511541
6.005784 0.32447454 -0.55210769
-7.9550023 0.06356433 -0.56314695
-7.7387218 0.18393764 0.74089658
-7.8356023 -0.15765405 -0.55109751
-8.0322046 0.28315657 -0.55119866
5.9245462 -0.005780994 0.55543423
-7.7962499 -0.1956588 -0.56309026
-7.6952138 -0.15744783 -0.55110651
-8.1544504 0.15634312 0.7928431
-7.8946433 -0.054938756 -0.56312019
-7.8561864 -0.018191511 -0.46420938
-1.1746675 0.14352584 -0.56360155
5.9246988 0.22427213 0.80100435
5.9244342 0.12397121 -0.4050566
5.8633304 0.32291096 -0.55209821
-0.95418769 0.13404502 0.01473787
-0.98193306 0.17573561 1.007236
-7.8738995 0.22260806 0.74008816
-7.8684177 0.20410098 -0.52404517
6.02526 0.18415146 -0.56407279
-7.9346781 0.043739714 -0.55114311
5.9514194 0.1934848 0.80118567
-7.8534656 0.064809181 -0.5631538
5.9375844 0.20329316 -0.50568771
-8.175168 -0.055280611 1.0367196
-7.5966444 -0.0090614306 0.97722358
5.8473663 0.12423421 0.61582136
5.8855443 0.24294816 -0.56407899
5.926846 -0.0060082818 -0.32557303
5.9200644 -0.05301642 1.0093817
5.9458127 0.085152902 -0.55204213
5.9064741 -0.015956022 -0.1226095
6.0258145 0.16341339 -0.55206746
-1.036001 -0.01381621 0.96247596
-7.9109173 0.083268411 -0.52258837
-7.903852 0.041580494 0.49604174
-7.739141 -0.018797817 0.74108678
-7.9108648 0.043745946 0.2943058
-7.9038725 0.062559687 0.17681092
-1.1162604 0.24516894 -0.56363142
5.9263434 -0.016944153 -0.42541057
5.9213734 0.0050906157 0.83791071
-1.010852 0.085757315 0.49538881
-0.95514393 0.22502412 -0.56363654
-8.1946163 -0.0089807296 0.9171229
-0.99200147 0.1740931 1.0062966
-7.9939284 -0.051592126 0.7668854
6.1632485 -0.076582879 -0.56254733
-7.9108839 0.025341064 -0.0019147837
5.9268131 -0.0059145251 0.037826315
5.946877 0.12405424 -0.083685659
-1.0310394 0.12337363 1.0530598
5.8903627 0.13308729 1.045632
-1.0782844 -0.014089924 0.33667728
-0.81619233 -0.043873087 1.0291756
-7.9303522 0.21615213 0.87176013
-7.9108534 0.06453567 0.47487411
-0.97318363 -0.0058154953 0.55582541
-1.0109069 0.061494324 -0.3641111
5.8631277 -0.015873998 0.19614805
5.886178 6.3811523e-05 0.51522756
-8.0953207 0.32458091 -0.55120528
-1.0759813 0.12536432 0.5158639
5.9602151 -0.005800561 0.47889811
5.8891416 0.064448416 0.37628832
5.745131 -0.035175648 -0.56399828
5.8445506 -0.015925847 -0.0044537075
6.0246773 0.13848224 1.0002388
5.6850185 0.16426723 -0.56404585
-0.93923628 -0.0058303834 0.49745873
-7.9723787 -0.0060155056 -0.083317727
5.8891115 0.084227607 -0.083905637
5.995297 0.33393362 -0.55223233
6.0856662 0.043923199 0.85668921
-8.1338472 0.26592761 -0.56318772
-8.2028933 0.16184486 0.77666599
5.8255157 0.13420521 0.61557508
-7.9359555 0.13408281 0.29697821
-7.6369267 -0.09576188 -0.56073874
-7.9038882 0.063759521 -0.063446335
-7.6377525 0.02171219 -0.56189156
5.9442272 0.043011311 -0.55203116
-0.81407994 0.12809363 0.97566372
-0.99319845 0.13400362 -0.1449506
5.8274636 0.13421853 0.55538774
5.7256722 0.082777582 -0.56402743
-1.0108391 0.043692078 0.69397366
-7.8355532 0.12639216 -0.14394556
5.8779168 0.093964733 1.0667775
5.8891053 0.082496047 -0.18495183
5.8875179 0.18514551 -0.55206424
-7.839251 0.1339177 -0.34487551
-0.93967348 -0.0059746155 -0.061570834
5.8046207 0.10287699 -0.55203766
-0.99489641 0.13406038 0.075095221
-1.0038569 0.024976559 0.41600278
5.8452716 0.26344225 -0.56408167
-8.0939617 -0.1958753 -0.55107111
-0.93853253 0.22632685 0.80189234
-1.0753223 0.13402355 -0.064425282
-1.0146265 -0.015949989 0.035345219
-7.8379025 -0.0060826079 -0.34601921
-7.8122463 0.28393471 -0.55121291
-7.81566 0.25821033 0.75167549
5.9246383 -0.015801055 0.47767839
-0.97456211 0.13417907 0.53469878
-1.0280164 -0.067680754 0.94145858
-1.032946 -0.016052872 -0.36307564
-1.0038598 0.1047829 0.3762531
-8.143012 0.026926298 0.82044649
5.9268284 -0.0059610312 -0.14242963
5.7260857 0.18541571 -0.56405389
-1.0344827 -0.006022302 -0.24455939
-1.032359 0.023742428 1.0593563
5.9634857 0.12528561 -0.48233974
5.9666657 0.1410042 0.77778786
-0.95565498 0.12421501 0.67365897
6.1028476 0.14784251 1.0113947
-7.9135938 0.18347825 -0.55118048
-7.9138603 0.12188316 0.67715907
-0.93839198 0.13419536 0.59720826
5.9603767 0.13413137 0.21500246
-7.8144755 0.26616162 -0.56320822
6.1263585 -0.036910426 -0.55202216
-7.6751671 0.044179406 -0.55151266
-7.6755948 -0.025797764 0.7548781
-7.9333544 -0.0060775583 -0.32459089
5.9043474 -0.015801245 0.47733995
-0.95389986 0.12403528 -0.022977309
-7.8937359 0.13406208 0.21583177
-7.5953436 0.17857733 0.88142842
-0.77471775 -0.17719275 -0.55154431
5.8961492 0.024558263 0.4968015
-1.003867 0.044107534 0.2585125
-7.7581344 0.043802802 0.88776183
5.8858232 -0.015842741 0.31685776
5.9244323 0.12402859 -0.18268758
-8.2122898 -0.055574853 0.88590044
-0.9952715 0.1339677 -0.28412527
5.8891129 0.064719982 -0.064692251
-1.0108494 0.063859589 0.53640723
-1.0341312 0.26491445 -0.55164182
-7.9709296 0.13392225 -0.32464603
-7.8356047 0.044180147 0.9942795
-0.9684177 0.1834925 -0.52323806
-0.79546267 0.12817997 0.95730078
-7.9955106 0.1192079 0.95679122
-7.9951038 0.024785943 0.88757032
5.9077454 0.24348679 -0.56408054
-0.95471692 0.12406547 0.094044581
-0.73805487 0.30303568 -0.55173117
5.8961282 0.084770732 0.17648327
-8.1724997 -0.042402711 1.0282938
-7.9337239 0.12396386 -0.16410151
-8.1472998 -0.12670319 0.75636411
-0.95502651 -0.015856568 0.39628506
-7.9038877 0.023352291 -0.063788682
-7.8745751 -0.0060305889 -0.14368132
6.0918026 0.10270067 0.7743504
-0.96241766 0.16438319 -0.52340364
5.847321 0.32332787 -0.56409729
5.8961058 0.042875905 -0.18281376
-1.0038595 0.062846355 0.37688991
-7.9162631 0.13399455 -0.045538872
6.104125 0.26277125 -0.56409812
-7.65412 0.20200299 -0.55120194
6.0682902 -0.056157295 -0.56401354
-0.85373706 -0.016917447 -0.56358063
6.0075445 0.17863309 0.77756536
-7.9548206 0.13396919 -0.14305052
5.9019346 0.12206926 0.11526548
5.7454634 0.26595011 -0.55207598
5.9244246 -0.0058326907 0.35506126
-7.6538625 0.17804784 1.0404619
-7.9340315 -0.019470148 0.57852733
-7.6742287 -0.0093385661 0.95558536
5.7840323 0.14346975 -0.56404686
-7.9589367 0.013947477 0.96504128
-7.9557471 -0.0060727065 -0.30535048
5.8451266 0.13412052 0.17520604
-1.0550613 -0.015908582 0.19662289
-1.0150372 0.12233505 0.13756619
-7.8741546 -0.0060097789 -0.063029617
-7.9434748 0.44290149 0.7868008
5.8647385 -0.0022353383 -0.54766572
5.6327686 -0.20992339 -0.55266458
-1.0143385 0.12062668 0.65460497
-7.8985486 0.12181991 -0.10442775
-7.9548583 0.13413933 0.51645327
5.8845091 -0.1165293 -0.56398618
-7.9767766 0.12826829 0.73949021
-7.8361039 -0.013696292 -0.44358137
-1.1352662 -0.13517587 -0.56353211
-7.7362137 -0.19507134 -0.5630942
-1.0142667 0.13405016 0.035883315
5.8861685 0.00087400223 -0.0032801814
-8.0542068 -0.19673657 -0.55107343
-7.8948135 0.36330825 0.86164141
-0.99404079 0.13393703 -0.40299538
-1.0004389 -0.00077506743 0.35539541
-7.9143753 0.11942872 1.0481093
-7.9108567 0.023649588 0.41503403
-7.6512733 -0.025380295 0.75231838
-7.9540343 0.4226101 0.81586605
-0.89658499 0.004209701 -0.55158335
6.0866394 0.062385045 -0.56404525
-7.9764442 0.10691769 0.93630928
-7.9335976 0.1639581 0.73882598
-7.9336605 0.18281765 -0.56317902
-7.9763832 0.12572727 -0.36285049
6.0261841 0.12775238 0.97635764
-8.1534986 -0.022479158 1.0087037
6.1641202 -0.093335137 -0.56205881
-7.6728354 0.17868561 1.0412947
-1.0038866 0.08285626 -0.0435686
5.7663965 0.26528707 -0.56407714
-0.77402955 0.068281606 -0.55200702
5.6216435 0.022935368 -0.56208879
-7.8352542 0.12660307 0.15514177
-7.6354103 -0.026629966 0.93695861
-1.0528387 0.13415281 0.43448949
-1.05492 0.13402897 -0.045529902
-7.9139886 -0.016010409 -0.064695403
-7.9143076 0.13404137 0.13597895
-7.9108992 0.023024503 -0.24338831
-7.8754129 0.13414475 0.53586102
-1.0038764 0.10404347 0.11582792
-8.1243191 -0.014868087 0.99961507
-0.977705 0.0032027604 1.0049223
-0.73830163 -0.056479275 -0.55211818
-8.1341238 -0.01164785 0.89307761
-0.99419475 -0.015821038 0.53475744
-7.581358 0.20522386 0.75512785
6.0050306 0.083815016 -0.55204558
-0.75299978 0.26475316 -0.55165976
-7.9038582 0.063801594 0.39699459
-1.0561464 0.13414304 0.39665166
-8.2139854 -0.035452507 0.88589537
5.8452668 -0.0060391808 -0.44374928
-1.0754329 0.14069548 -0.54883528
5.9182754 -0.011995144 1.0518025
-1.0152092 0.13416889 0.49607977
-7.9720478 0.13406146 0.21491563
-7.9038663 0.044109233 0.2771773
5.8253775 0.18500932 0.81192231
5.8891616 0.10486494 0.6972661
-7.892982 0.094994813 0.86495441
-7.9039073 0.045077648 -0.36535117
-7.795629 0.101827 0.88139898
-1.0406895 0.18044798 0.79703063
5.960526 0.13413778 0.23986617
-0.93715847 0.13404459 0.016982242
-7.9108596 0.084301263 0.37633654
-1.0776442 -0.014149527 -0.40484375
-7.6747446 0.12819554 0.95681769
5.8845148 0.12296889 0.13709173
-7.8810987 0.081672974 0.78248113
5.963717 0.24318826 -0.55208409
-7.6896605 0.17713673 1.0395529
-0.9930234 0.2404592 0.81754243
-0.95267093 0.13417937 0.53546441
