# .PCD v0.7 - Point Cloud Data file format
VERSION 0.7
FIELDS x y z
SIZE 4 4 4
TYPE F F F
COUNT 1 1 1
WIDTH 1456
HEIGHT 1
VIEWPOINT 0 0 0 1 0 0 0
POINTS 1456
DATA ascii
-0.61284679 -2.693676 -5.5884671
-0.61223555 -2.5899239 -5.5628157
-0.97294205 -2.8102911 -6.2533836
-0.69314593 -2.72473 -5.6850853
-0.59666824 -2.6837626 -5.6241283
-0.59603745 -2.5799448 -5.5984402
-0.81701469 -2.8816757 -6.2320471
-0.75894737 -2.8085003 -6.1820993
-0.72979999 -2.7171767 -6.1462073
-0.68408632 -2.7096362 -5.7241921
-0.58796585 -2.6686141 -5.6624293
-0.59493738 -2.559211 -5.6392717
-0.8271991 -2.8530679 -6.2841187
-0.67383885 -2.8395095 -6.1903405
-0.6149295 -2.7691712 -6.1411533
-0.64365083 -2.7150688 -5.7521086
-0.5789336 -2.6534629 -5.7007933
-0.55138677 -2.5681505 -5.665514
-0.58911085 -2.8707466 -6.1975479
-0.56104529 -2.7817614 -6.1621971
-0.62633324 -2.7051637 -5.788239
-0.58107668 -2.6303897 -5.743422
-0.59154558 -2.5176649 -5.7214518
-0.56140339 -2.8659346 -6.2304478
-0.49599296 -2.8019488 -6.1774092
-0.61259598 -2.6927032 -5.8257751
-0.57133013 -2.6152179 -5.7819872
-0.55228686 -2.8490527 -6.2722073
-0.45352316 -2.8073368 -6.2025537
-0.92387265 -2.572011 -6.0186434
-0.58324873 -2.6905901 -5.8573446
-0.56885278 -2.5947413 -5.823523
-0.56146538 -2.820014 -6.3232446
-0.39989597 -2.8203213 -6.2218676
-0.7239278 -2.6802685 -5.984127
-0.57279247 -2.6755867 -5.8962822
-0.56218809 -2.5768991 -5.8637371
-0.29100496 -2.8710246 -6.2130909
-0.61703974 -2.7284374 -5.9848156
-0.56579208 -2.6579876 -5.9368181
-0.54762536 -2.5643721 -5.9010296
-0.594311 -2.7211554 -6.0195322
-0.56596571 -2.6351748 -5.9806089
-0.63016367 -2.4824557 -5.9783878
-0.56379193 -2.7189901 -6.0508499
-0.56193644 -2.6149356 -6.0230083
-0.64062244 -2.4510789 -6.0273619
-0.55569226 -2.701612 -6.0919189
-0.56496644 -2.5894499 -6.0688219
-0.52849978 -2.6969831 -6.1246214
-0.55635571 -2.5717781 -6.1099205
-0.50856823 -2.6872888 -6.1605802
-0.55106461 -2.5514736 -6.1527967
-0.49948674 -2.6699333 -6.2017069
-0.50856727 -2.5574565 -6.1786766
-0.63296592 -2.3572998 -6.2067695
-0.40159005 -2.7142205 -6.200314
-0.46969742 -2.5608995 -6.2058916
-0.37756109 -2.7072861 -6.2337446
-0.39072067 -2.5934877 -6.2133007
-0.44206315 -2.4484117 -6.2092562
-0.34966922 -2.7029705 -6.2652111
-0.37365925 -2.5812769 -6.2502856
-0.34921205 -2.4929976 -6.2095966
-0.42644393 -2.3261263 -6.2208076
-0.34189999 -2.5796952 -6.279952
-0.35341096 -2.4643843 -6.2570162
-0.3413133 -2.3665147 -6.2247267
-0.31308675 -2.362469 -6.256063
6.1648216 -2.5467391 -6.3489733
6.1059608 -2.5547159 -6.2610703
6.1137252 -2.7442799 -6.281764
6.1079574 -2.6701546 -6.2538195
6.0870695 -2.6188431 -6.2090302
6.1380997 -2.8177743 -6.3005314
6.0884943 -2.8140745 -6.222662
6.1239953 -2.6771832 -6.2400331
6.1266251 -2.5878966 -6.220849
6.1029477 -2.9771848 -6.2498264
6.0946045 -2.912034 -6.2215185
6.1138606 -2.8062494 -6.2194934
6.1471553 -2.6730006 -6.2339025
6.1736388 -2.5456614 -6.2398853
6.1234007 -2.9768758 -6.241354
6.1024384 -2.9298229 -6.1995792
6.1417327 -2.7947898 -6.2187405
6.170301 -2.6688626 -6.2275805
6.2041793 -2.5300879 -6.2408485
6.1951733 -2.9825435 -6.3079834
6.1386929 -2.9837525 -6.227253
6.1428037 -2.9004288 -6.2124243
6.1646891 -2.7907555 -6.2125053
6.19836 -2.6572976 -6.226192
6.2421269 -2.5032196 -6.2490482
6.2003789 -3.0035357 -6.2823105
6.1615663 -2.9799366 -6.2212029
6.1681924 -2.892885 -6.2089043
6.1951804 -2.7757289 -6.2138953
6.2314591 -2.638329 -6.2296515
6.302392 -2.4423909 -6.2792974
6.2078848 -3.0210023 -6.259407
6.1870255 -2.9725981 -6.2176661
6.1987443 -2.8781519 -6.2104626
6.2232466 -2.7644458 -6.2124181
6.2596946 -2.6268921 -6.2277403
6.2151108 -3.0384626 -6.2364879
6.2177525 -2.9581873 -6.2192888
6.2242327 -2.8707209 -6.2064748
6.2539392 -2.7495525 -6.2132697
6.2804112 -2.6266861 -6.21802
6.23808 -3.0349033 -6.2299318
6.2459526 -2.9474039 -6.2179556
6.239306 -2.8777931 -6.1917872
6.2769971 -2.7457271 -6.2061543
6.3087077 -2.6153584 -6.215651
6.2664175 -3.0243931 -6.2286119
6.2688961 -2.9437902 -6.2110515
6.2621264 -2.8740585 -6.1848116
6.2896271 -2.7565942 -6.1886559
6.3087993 -2.6449599 -6.1856308
6.2866807 -3.0244255 -6.2189398
6.2971883 -2.9331214 -6.2092428
6.2796216 -2.8775766 -6.1724639
6.3020663 -2.767472 -6.1710825
6.3162632 -2.6633973 -6.1631083
6.32056 -3.0070477 -6.2225227
6.3282485 -2.9189694 -6.2098083
6.2916613 -2.8883209 -6.1548343
6.3222437 -2.7673993 -6.1609898
6.3051801 -2.7077765 -6.1233406
6.4325485 -2.9713829 -6.3210516
6.354588 -2.9897506 -6.2257857
6.3485079 -2.9190512 -6.1996331
6.3035107 -2.8990748 -6.1371346
6.3210421 -2.7965569 -6.1307116
6.3093243 -2.7298744 -6.0984464
6.2810178 -2.6859028 -6.0506392
6.3944769 -3.0436313 -6.2535291
6.3859844 -2.9760139 -6.2260756
6.3714466 -2.9156322 -6.1918917
6.3477559 -2.8667445 -6.1498966
6.3194432 -2.8256812 -6.1005158
6.313158 -2.751956 -6.0735722
6.2874079 -2.7044494 -6.0285845
6.4148779 -3.0439401 -6.2429867
6.4230814 -2.9553974 -6.2313457
6.3998947 -2.9051943 -6.1891193
6.3758888 -2.8560488 -6.1470461
6.3228602 -2.8474891 -6.0753508
6.3059959 -2.7887974 -6.0390573
6.2882566 -2.7304811 -6.0018044
6.2878585 -2.6459773 -5.9797149
6.4437661 -3.0340433 -6.2402964
6.45754 -2.938343 -6.2336369
6.4228201 -2.9018734 -6.1809554
6.4013176 -2.8489971 -6.1414261
6.3341393 -2.8583705 -6.0575819
6.3064384 -2.8145175 -6.0118933
6.2861042 -2.7602298 -5.9727354
6.2806935 -2.6836734 -5.9464712
6.4669614 -3.0310292 -6.232029
6.4921346 -2.9213698 -6.2356005
6.4962921 -2.835186 -6.2184987
6.4434214 -2.8205316 -6.1505618
6.353467 -2.8583643 -6.0470719
6.3092456 -2.8365257 -5.987175
6.2862468 -2.7862055 -5.9460855
6.2757149 -2.7175288 -5.9156475
6.3109717 -2.5798311 -5.9238057
6.4959149 -3.021251 -6.2288418
6.5240002 -2.9079401 -6.2346444
6.5393367 -2.8074079 -6.2273865
6.488574 -2.7885997 -6.1617589
6.3699574 -2.86202 -6.0339785
6.3199396 -2.8474712 -5.9695983
6.2725668 -2.8308229 -5.9079304
6.2703209 -2.7513409 -5.8849459
6.2956185 -2.6294489 -5.8845558
6.5220032 -3.0149369 -6.222765
6.5617208 -2.88767 -6.2385311
6.5797796 -2.7832532 -6.2333279
6.5847316 -2.6925468 -6.2168617
6.3919086 -2.8584547 -6.0255771
6.3386993 -2.8473945 -5.9590225
6.2855082 -2.8380752 -5.8929777
6.2779112 -2.7662032 -5.8655782
6.2612085 -2.7058127 -5.830255
6.5686493 -2.9849114 -6.2346964
6.5996094 -2.8674915 -6.2420502
6.6232982 -2.7556901 -6.2413712
6.6478415 -2.6395466 -6.241538
6.4082165 -2.8621695 -6.0122013
6.3573885 -2.8473511 -5.9482932
6.2955699 -2.8490677 -5.8756547
6.2663932 -2.8075008 -5.8306026
6.2792044 -2.705488 -5.8198056
6.2973886 -2.5901637 -5.8120518
6.6067181 -2.965179 -6.2383871
6.634738 -2.8508534 -6.242661
6.7335534 -2.647634 -6.3061128
6.5006785 -2.7683313 -6.0628595
6.3843751 -2.8363378 -5.9443736
6.3081999 -2.8563459 -5.8605428
6.2734118 -2.8223281 -5.8112955
6.2837338 -2.7243114 -5.798439
6.2282438 -2.7176955 -5.7321334
6.650907 -2.9387684 -6.2468467
6.408596 -2.8290477 -5.9378977
6.3290043 -2.8524902 -5.8520961
6.2802114 -2.8371525 -5.7919674
6.2718191 -2.766037 -5.7642517
6.2402592 -2.7250118 -5.7175713
6.3476515 -2.4776292 -5.7777939
6.4978595 -2.7376585 -5.9838448
6.3497744 -2.8486762 -5.8434668
6.284039 -2.855737 -5.770442
6.2730126 -2.7886262 -5.7408762
6.2574878 -2.7246118 -5.7070565
6.2705956 -2.618289 -5.694355
6.3676991 -2.8486102 -5.8324385
6.301476 -2.8555126 -5.7597437
6.271184 -2.8150039 -5.7154408
6.2611723 -2.7435484 -5.6861544
6.234683 -2.696104 -5.6437397
6.4421253 -2.7745245 -5.8652811
6.3216324 -2.8515656 -5.7510452
6.2800431 -2.8261287 -5.6984472
6.232058 -2.8087552 -5.6408706
6.2461071 -2.7034638 -5.6291647
6.5115185 -2.7080491 -5.8929386
6.3333259 -2.8589089 -5.7357807
6.2831821 -2.8448601 -5.6772599
6.2486877 -2.8083513 -5.6302795
6.2466331 -2.726445 -5.6066732
6.206708 -2.7004154 -5.5557451
6.3561835 -2.8512826 -5.728889
6.2916489 -2.8559833 -5.6602097
6.2515087 -2.8272178 -5.6095438
6.2522945 -2.7416089 -5.5881205
6.2175546 -2.7077665 -5.5413718
6.4530115 -2.7464373 -5.7762866
6.3083558 -2.8557334 -5.64924
6.2596159 -2.8383827 -5.5928001
6.2468514 -2.772341 -5.5618463
6.2228961 -2.7230117 -5.5231814
6.4992261 -2.7091367 -5.7851682
6.3165202 -2.8668771 -5.6320553
6.2703309 -2.8457117 -5.5779848
6.2438064 -2.7991436 -5.5376039
6.2307343 -2.7343149 -5.5068383
6.6653314 -2.9773612 -6.3110099
6.3216653 -2.8818073 -5.6128225
6.2865038 -2.845382 -5.5670013
6.2487283 -2.8142595 -5.5191393
6.2221012 -2.7692144 -5.4794188
6.6951795 -2.9682038 -6.3064775
6.3351727 -2.8853946 -5.5995588
6.2969713 -2.8527429 -5.5520105
6.2589951 -2.8216093 -5.5044279
6.2212996 -2.7922807 -5.4576263
6.7220368 -2.9624357 -6.2990623
6.3157978 -2.8486378 -5.5427051
6.2691221 -2.8289697 -5.4896488
6.2092342 -2.8310165 -5.4286675
6.3402815 -2.8369281 -5.5370317
6.2847261 -2.8285987 -5.4784932
6.221664 -2.8344202 -5.4160228
6.3619227 -2.8290918 -5.5292358
6.3030801 -2.8243895 -5.4690328
6.2284284 -2.8456721 -5.3997326
6.3157105 -2.8279419 -5.455781
6.2406192 -2.8491042 -5.3869276
6.33109 -2.8276558 -5.4442253
6.2555194 -2.8486495 -5.3757677
6.3492632 -2.8235452 -5.4343147
6.2703443 -2.848222 -5.3644781
6.3645024 -2.8233206 -5.4224758
6.2850957 -2.847822 -5.3530602
6.2997704 -2.8474491 -5.3415136
6.1859541 -2.6981697 -5.466938
6.3057437 -2.8587658 -5.3248224
6.1988821 -2.7015393 -5.4545159
6.3173285 -2.8623161 -5.3114176
6.2117071 -2.7049286 -5.4419928
6.2163448 -2.7202621 -5.424089
6.226203 -2.7276483 -5.4096704
6.1873083 -2.6945333 -5.3646994
6.2277474 -2.7469428 -5.3900018
6.1995401 -2.6979008 -5.3521776
6.2235765 -2.7741449 -5.3669415
6.2143641 -2.6972775 -5.341218
6.2246308 -2.7933986 -5.347374
6.2182732 -2.7127013 -5.3235655
6.1754098 -2.6844034 -5.2778769
6.22823 -2.808682 -5.3295221
6.2192597 -2.7321181 -5.3042922
6.1870737 -2.6877489 -5.2653627
6.2316337 -2.8239565 -5.3116775
6.222764 -2.7475216 -5.286664
6.1986356 -2.6911118 -5.2527566
6.2488604 -2.8195028 -5.3020678
6.2205629 -2.7709002 -5.2658587
6.2073874 -2.6985309 -5.2385206
6.1555824 -2.6833656 -5.1890755
6.2463117 -2.8426609 -5.280899
6.2181096 -2.7942522 -5.2451286
6.2051206 -2.7220964 -5.2181387
6.1639857 -2.6907561 -5.1751509
6.2633433 -2.8382461 -5.2710896
6.2265477 -2.8016453 -5.2307096
6.2053428 -2.7416055 -5.1993361
6.1776323 -2.6900034 -5.1640749
6.2746329 -2.8417277 -5.2579327
6.2292538 -2.8170035 -5.2131524
6.2053471 -2.7610962 -5.1805787
6.1858048 -2.6974187 -5.1500072
6.2800889 -2.8530784 -5.2415314
6.2373962 -2.8244038 -5.1986575
6.1968417 -2.7926321 -5.1574492
6.1911335 -2.7089093 -5.1344662
6.1386623 -2.6949353 -5.0863447
6.2968907 -2.8487425 -5.2313495
6.2510633 -2.8238721 -5.1871252
6.199151 -2.8080554 -5.1402907
6.1908498 -2.7285244 -5.1160994
6.1570616 -2.6858914 -5.0779595
6.2962928 -2.8679421 -5.2117558
6.2618117 -2.8273311 -5.1739807
6.2012753 -2.8234682 -5.1231489
6.1903548 -2.748121 -5.0977802
6.1700602 -2.6850958 -5.0667276
6.3187208 -2.8558245 -5.2044115
6.2781668 -2.8228855 -5.1636972
6.2060189 -2.834862 -5.1074467
6.1868939 -2.7717526 -5.0781412
6.1829834 -2.6843243 -5.0553803
6.2916012 -2.8224308 -5.1518021
6.2190647 -2.8342435 -5.0959435
6.1776605 -2.8034544 -5.055881
6.1876831 -2.6958621 -5.0400157
6.1284451 -2.6909096 -4.9910765
6.3020716 -2.8259518 -5.1383491
6.2292004 -2.8376486 -5.0829363
6.1792655 -2.8189292 -5.0391207
6.1867695 -2.715579 -5.022068
6.1408529 -2.6900342 -4.9798617
6.3182306 -2.8215954 -5.1276522
6.2449255 -2.8330805 -5.0725865
6.1834846 -2.8303514 -5.0237012
6.1856508 -2.7352755 -5.0041733
6.1558757 -2.6850514 -4.9697509
6.3226895 -2.8330417 -5.1111894
6.2605987 -2.8285456 -5.0620861
6.1903577 -2.837734 -5.009573
6.1815739 -2.7590342 -4.9850826
6.1654444 -2.6883531 -4.9570975
6.1191339 -2.6639495 -4.915709
6.270473 -2.8320143 -5.0487652
6.1971025 -2.8451219 -4.9954014
6.1800356 -2.7786856 -4.9673166
6.1667714 -2.7040355 -4.9408188
6.1284003 -2.6671915 -4.9032645
6.2831273 -2.8315175 -5.0366812
6.206552 -2.8484881 -4.9824529
6.1782951 -2.7983165 -4.9496088
6.1679249 -2.7197049 -4.9245644
6.1348972 -2.6746082 -4.8896298
6.3014965 -2.8230925 -5.027081
6.2215905 -2.843823 -4.9719276
6.1847334 -2.8057203 -4.9355602
6.1661663 -2.7394764 -4.9071841
6.1439538 -2.6778736 -4.8770518
6.1145291 -2.6243176 -4.8426957
6.3111019 -2.8266239 -5.0134492
6.233716 -2.8432081 -4.9600239
6.1826296 -2.8253212 -4.9179235
6.1669598 -2.7551179 -4.8909965
6.1556048 -2.6770008 -4.8654828
6.1312809 -2.614965 -4.8333192
6.2457628 -2.8426168 -4.9480081
6.174696 -2.853019 -4.8980212
6.1592965 -2.7830598 -4.871491
6.1644726 -2.6802976 -4.8527408
6.1453514 -2.6098411 -4.8227582
6.2577291 -2.8420479 -4.9358816
6.1693454 -2.8766212 -4.8794012
6.1569386 -2.8027623 -4.8543139
6.1759577 -2.6794648 -4.8409748
6.1620283 -2.6005616 -4.8130579
6.2609324 -2.8535161 -4.9201078
6.1722956 -2.8880401 -4.8642745
6.1627417 -2.8101554 -4.8404446
6.1819057 -2.6869314 -4.8270392
6.1653085 -2.6122315 -4.7982788
6.278511 -2.8449795 -4.9101362
6.169394 -2.907546 -4.8469219
6.1600323 -2.8298259 -4.8233476
6.1849885 -2.6985376 -4.8120503
6.1711268 -2.619719 -4.7844596
6.2814655 -2.8564603 -4.894268
6.1806149 -2.9068203 -4.8351135
6.1627469 -2.8413005 -4.808413
6.1906762 -2.7060087 -4.7980566
6.1902952 -2.6063426 -4.7753453
6.2754807 -2.8799078 -4.8750243
6.1831336 -2.9182274 -4.8199697
6.17941 -2.8323586 -4.7986226
6.1990027 -2.7093575 -4.785008
6.1932163 -2.6180298 -4.760438
6.2898583 -2.8754199 -4.8636379
6.1912766 -2.9215636 -4.8069468
6.1847181 -2.8397663 -4.7846127
6.2016797 -2.720962 -4.7699623
6.1959925 -2.6297119 -4.7455287
6.2982702 -2.8789258 -4.8499298
6.2282848 -2.884635 -4.804265
6.1984243 -2.8349581 -4.7735519
6.2125645 -2.7202098 -4.7577567
6.2122555 -2.6205854 -4.7351069
6.3095384 -2.8784678 -4.8372211
6.2828536 -2.8236721 -4.8072915
6.1921124 -2.8586605 -4.7555208
6.1339335 -2.8510845 -4.7157121
6.2202673 -2.6239662 -4.7218733
6.3860002 -2.8823259 -4.8674269
6.3266687 -2.8700879 -4.8265095
6.311399 -2.7990355 -4.8006263
6.2571383 -2.780726 -4.7615552
6.2200599 -2.7393093 -4.7284794
6.4004188 -2.8781447 -4.8552179
6.3407698 -2.865716 -4.8145823
6.3224106 -2.7985594 -4.7877178
6.3109894 -2.7192235 -4.7630463
6.2531672 -2.7057674 -4.7232089
6.4117179 -2.8779094 -4.8418026
6.3637919 -2.8494883 -4.8055544
6.3245168 -2.8101325 -4.7718
6.3304734 -2.7065396 -4.7528272
6.2807016 -2.6805162 -4.7158017
6.3777909 -2.8451927 -4.7932839
6.3353229 -2.8096848 -4.7587366
6.3267894 -2.7263076 -4.7351627
6.2940941 -2.6758134 -4.7037859
6.284596 -2.5879416 -4.6780133
6.3826718 -2.8527868 -4.7779408
6.348999 -2.8052588 -4.7465005
6.3345265 -2.7298672 -4.7211199
6.3102627 -2.6670501 -4.6924744
6.283844 -2.603837 -4.6618562
6.2662444 -2.5296957 -4.6327996
6.3965006 -2.8485389 -4.76544
6.3566666 -2.8088529 -4.7322989
6.333416 -2.7455621 -4.7044077
6.3235278 -2.6624115 -4.6801662
6.2829285 -2.6197169 -4.6457391
6.2709141 -2.5373292 -4.6183939
6.3981113 -2.8600945 -4.749042
6.3523045 -2.8284204 -4.7144556
6.3262935 -2.7693138 -4.6860414
6.333858 -2.6618826 -4.6669164
6.2902641 -2.6232047 -4.6319413
6.2727108 -2.5491321 -4.6032457
6.3567219 -2.8360038 -4.6993222
6.3277617 -2.7809336 -4.6702876
6.3469725 -2.6572981 -4.6543531
6.297493 -2.6267035 -4.6180806
6.2798786 -2.5526028 -4.5894961
6.3610096 -2.8435893 -4.6841626
6.3261414 -2.7965734 -4.6537318
6.3600135 -2.6527421 -4.641654
6.3074384 -2.6260967 -4.6048808
6.2869391 -2.5560839 -4.5756841
6.3772039 -2.8352711 -4.6723261
6.3273067 -2.8081734 -4.6380186
6.37009 -2.6522832 -4.628067
6.3172932 -2.6255093 -4.5915837
6.3873072 -2.8349352 -4.6586761
6.3342457 -2.8117292 -4.6238685
6.3800726 -2.6518443 -4.6143813
6.3298988 -2.6208336 -4.578877
6.3761253 -2.8623846 -4.6393337
6.3351383 -2.8233216 -4.6081448
6.3870521 -2.6554828 -4.5998821
6.339581 -2.6202893 -4.5653677
6.3799047 -2.8699782 -4.6240587
6.3358855 -2.8349049 -4.5924363
6.3744192 -2.8894429 -4.6064801
6.3364897 -2.8464797 -4.5767446
6.3779144 -2.8970227 -4.5912204
-7.5292702 -2.2511559 -4.5454884
-7.3938212 -2.351378 -4.552587
-7.3378606 -2.3134143 -4.5041566
-7.7909155 -2.5632813 -4.5432591
-7.3162766 -2.3982284 -4.5678458
-7.3038497 -2.3203454 -4.5261292
-7.7824168 -2.5457635 -4.5719328
-7.282002 -2.4049857 -4.5893822
-7.2769012 -2.3205624 -4.5488863
-7.7813339 -2.5220973 -4.6017799
-7.7940412 -2.3337753 -4.5191736
-7.2690687 -2.391587 -4.6143265
-7.2428336 -2.3277459 -4.5702629
-7.7722893 -2.5045493 -4.6305461
-7.7224388 -2.4571888 -4.581099
-7.6609201 -2.4213417 -4.5308309
-7.2382216 -2.3951683 -4.6360035
-7.7325411 -2.5117412 -4.654315
-7.5963254 -2.5372775 -4.5913668
-7.528553 -2.5095875 -4.5408511
-7.4406743 -2.498173 -4.4870982
-7.2249651 -2.3818579 -4.6607513
-7.7766037 -2.5406013 -4.7329149
-7.6435223 -2.5594418 -4.6692119
-7.5460882 -2.5548308 -4.6122479
-7.4975448 -2.511761 -4.5644689
-7.432344 -2.4812124 -4.5133948
-7.1939616 -2.3856258 -4.6819916
-7.7873497 -2.5935521 -4.807478
-7.747705 -2.5383673 -4.7583923
-7.5511456 -2.6106944 -4.6823802
-7.5034347 -2.5662711 -4.6338596
-7.4627719 -2.5172775 -4.5872169
-7.4237728 -2.4642475 -4.53971
-7.6965199 -2.6390128 -4.8208914
-7.7069006 -2.5451579 -4.7820683
-7.5640154 -2.5746529 -4.7147927
-7.4902129 -2.552192 -4.6609468
-7.4312601 -2.5194395 -4.6108809
-7.319418 -2.5325205 -4.551898
-7.6483932 -2.6519725 -4.841538
-7.6288166 -2.5831769 -4.7969308
-7.54319 -2.566968 -4.7403088
-7.4734793 -2.5415881 -4.6866689
-7.3964257 -2.5252287 -4.6329865
-7.2889137 -2.5356042 -4.5740519
-7.5700674 -2.6893952 -4.8549376
-7.5773649 -2.5999546 -4.8164787
-7.4998665 -2.5782166 -4.7611623
-7.4713368 -2.5182219 -4.7151399
-7.3652372 -2.5279038 -4.6554241
-7.2692456 -2.5288799 -4.5977798
-7.5293274 -2.6135929 -4.8369589
-7.4524555 -2.5925412 -4.7814379
-7.450068 -2.510603 -4.740694
-7.3226538 -2.5402367 -4.6761336
-7.2526431 -2.5186458 -4.6226225
-7.5227523 -2.593509 -4.8656263
-7.4240155 -2.5915077 -4.8045998
-7.443717 -2.4904261 -4.7685022
-7.2877979 -2.5464585 -4.697216
-7.2578387 -2.4887261 -4.6507711
-7.4978209 -2.5892711 -4.8893285
-7.3885894 -2.5971892 -4.8252316
-7.4156709 -2.4898775 -4.7910328
-7.2605786 -2.5465014 -4.7188349
-7.2487731 -2.472331 -4.6757574
-7.498138 -2.5629406 -4.9197831
-7.338099 -2.6154974 -4.8427477
-7.3218532 -2.5475051 -4.7994323
-7.2436547 -2.5365093 -4.7431169
-7.2746711 -2.4222016 -4.7084966
-7.5574565 -2.5707014 -5.0063367
-7.4760804 -2.5553901 -4.944849
-7.3750744 -2.5573153 -4.8808041
-7.2790985 -2.5600829 -4.8183565
-7.2301388 -2.5232537 -4.768095
-7.2610059 -2.4088168 -4.7336078
-7.5347977 -2.5629215 -5.0317879
-7.4684834 -2.5353038 -4.9735627
-7.4403152 -2.4732208 -4.9267278
-7.2364163 -2.5728424 -4.8368483
-7.230659 -2.496762 -4.7962704
-7.2471366 -2.3954535 -4.758677
-7.511991 -2.555207 -5.0570903
-7.4496984 -2.5246811 -4.9994078
-7.4324961 -2.453038 -4.9551368
-7.3260174 -2.4647567 -4.8874798
-7.2272944 -2.4735367 -4.8237615
-7.2400827 -2.3753562 -4.7852716
-7.5475869 -2.5836873 -5.1396689
-7.4858789 -2.5509412 -5.0805435
-7.445672 -2.5016866 -5.0284996
-7.4320393 -2.4266496 -4.9848552
-7.3615189 -2.4055896 -4.9252715
-7.2205429 -2.4538572 -4.8498888
-7.2157388 -2.3724294 -4.8072681
-7.5345955 -2.566401 -5.1690564
-7.465939 -2.5399773 -5.1072397
-7.4475584 -2.4717665 -5.0610218
-7.4195681 -2.4093888 -5.0130715
-7.2077799 -2.3521006 -4.8344445
-7.5145717 -2.5555487 -5.1954918
-7.4499092 -2.5261934 -5.1342731
-7.4495225 -2.4420371 -5.0930901
-7.3895783 -2.4086306 -5.0356412
-7.4943638 -2.5447447 -5.2218189
-7.4480104 -2.4998574 -5.1657252
-7.4404035 -2.4218361 -5.1221318
-7.5262246 -2.5734119 -5.3065896
-7.4703779 -2.537087 -5.2468481
-7.4457436 -2.4734697 -5.1973157
-7.4062052 -2.4240956 -5.1435461
-7.5017352 -2.5655985 -5.3318229
-7.4498262 -2.5263908 -5.2729335
-7.4395566 -2.4501948 -5.2278743
-7.3966351 -2.4039412 -5.1724958
-7.4735208 -2.5609169 -5.3556061
-7.4362059 -2.5095086 -5.3013883
-7.4259753 -2.4332392 -5.2561336
-7.3797669 -2.3902364 -5.199194
-7.4487658 -2.5532556 -5.3804898
-7.4364734 -2.4801259 -5.3348856
-7.412138 -2.4162941 -5.2843781
-7.5311284 -2.5385551 -5.4892673
-7.438035 -2.5333421 -5.4105549
-7.4363241 -2.4506748 -5.3685589
-7.401535 -2.3961658 -5.3138461
-7.6075606 -2.7220926 -6.113946
-7.4912329 -2.5427933 -5.5089011
-7.4199605 -2.5196028 -5.4379277
-7.4217696 -2.4337468 -5.3971577
-7.3732805 -2.392051 -5.3370242
-7.5644083 -2.7245755 -6.1320825
-7.6924539 -2.4282062 -5.6689792
-7.4407873 -2.5563118 -5.5238671
-7.4191723 -2.4903924 -5.472157
-7.4104328 -2.4136751 -5.4270706
-7.5281992 -2.7216926 -6.1537018
-7.5211735 -2.6390898 -6.1097107
-7.4986701 -2.5681303 -6.058075
-7.6228333 -2.4557164 -5.6772943
-7.4080091 -2.5547833 -5.5456161
-7.4214387 -2.4580069 -5.5079641
-7.3918839 -2.3999317 -5.4542885
-7.4885168 -2.7217059 -6.1730728
-7.4338913 -2.6791172 -6.1024127
-7.4152937 -2.6064663 -6.053288
-7.4659376 -2.5586321 -5.6465969
-7.4134855 -2.5196869 -5.5834074
-7.4059405 -2.4411395 -5.5368228
-7.3662453 -2.3925765 -5.4786644
-7.4522409 -2.7190795 -6.1940894
-7.3845119 -2.6882374 -6.1154108
-7.3729229 -2.6102705 -6.0702348
-7.7670641 -2.3589153 -5.8644013
-7.4289236 -2.5599017 -5.6667705
-7.4011402 -2.4998469 -5.6139274
-7.39362 -2.4211574 -5.5671105
-7.4869342 -2.6579065 -6.2569609
-7.3251886 -2.7061286 -6.1220512
-7.3439794 -2.6025538 -6.0944581
-7.5884919 -2.4776492 -5.8213201
-7.4161372 -2.540144 -5.6976724
-7.3884902 -2.4800036 -5.6444664
-7.3741603 -2.4074523 -5.5944557
-7.2795196 -2.7128084 -6.1360116
-7.2983046 -2.6095672 -6.1088042
-7.4566374 -2.5586615 -5.7974472
-7.3961625 -2.5264499 -5.7253857
-7.3789535 -2.4570675 -5.6765757
-7.3476892 -2.4000833 -5.6187139
-7.2107439 -2.7398014 -6.1354914
-7.2560334 -2.6138203 -6.1246858
-7.7553387 -2.3594794 -6.0268564
-7.4222703 -2.5568147 -5.8188753
-7.3588686 -2.5280082 -5.7448869
-7.3588753 -2.4434135 -5.7040129
-7.2016811 -2.7151599 -6.1707773
-7.2007327 -2.6300259 -6.1322517
-7.5399346 -2.5091217 -5.9592962
-7.4015274 -2.5431137 -5.8468266
-7.3929229 -2.4655991 -5.7987165
-7.3385792 -2.4297981 -5.7313671
-7.1765151 -2.7052178 -6.1952543
-7.1463318 -2.6467159 -6.1386375
-7.4606147 -2.5454125 -5.957407
-7.3845692 -2.5267165 -5.875762
-7.389534 -2.4368703 -5.8341565
-7.4092355 -2.3322449 -5.8018646
-7.2543802 -2.6021416 -6.2866764
-7.1012292 -2.6544821 -6.1511817
-7.4151311 -2.5522785 -5.9732499
-7.3701115 -2.5070612 -5.9070592
-7.3582659 -2.4323926 -5.8568234
-7.5545382 -2.1619775 -5.9120855
-7.3832231 -2.5474753 -5.9959459
-7.3687487 -2.4753227 -5.9454427
-7.3402367 -2.4156892 -5.8861413
-7.3579235 -2.5368299 -6.0220923
-7.3702211 -2.4404812 -5.9858103
-7.4013629 -2.3248358 -5.9572525
-7.3517537 -2.5080962 -6.0599489
-7.3672028 -2.4083242 -6.0252466
-7.3391628 -2.4855583 -6.0935097
-7.3479104 -2.3916163 -6.055007
-7.3229327 -2.4660091 -6.1251984
-7.3381281 -2.3657551 -6.0903063
-7.2796998 -2.470283 -6.1420269
-7.3046279 -2.3610876 -6.1131248
-7.2210331 -2.4900761 -6.1480284
-7.2749152 -2.3537083 -6.1369638
-7.5030127 -2.0425019 -6.2240276
-7.1787024 -2.4949777 -6.1633391
-7.2291374 -2.3618515 -6.1509428
-7.1332607 -2.5030742 -6.1762686
-7.1803093 -2.3732681 -6.1625447
-7.2229238 -2.2445874 -6.1430035
-7.2111073 -2.3925247 -6.2678833
-7.1285071 -2.3879848 -6.1717043
-7.1647577 -2.2659948 -6.1489959
-7.2015805 -2.2783127 -6.2603655
-7.1038022 -2.2908218 -6.1524453
-7.2153854 -2.1376829 -6.2655849
-0.64097989 -2.2576437 -6.3075423
-0.71187389 -2.4628844 -6.2501798
-0.74199283 -2.4101872 -6.1963673
-0.72616506 -2.5951915 -6.2357197
-0.77005911 -2.5606248 -6.1727471
-0.74807084 -2.4493442 -6.1591606
-0.66356695 -2.6434042 -6.2798376
-0.76437604 -2.6674027 -6.1739569
-0.73402476 -2.5506616 -6.1676922
-0.66625702 -2.3864019 -6.1875029
-0.74965489 -2.8427949 -6.2100501
-0.80710733 -2.8248439 -6.1377954
-0.73463655 -2.6645689 -6.1643457
-0.69481599 -2.5373819 -6.1646023
-0.62364936 -2.3694654 -6.1859074
-0.64118159 -2.8427529 -6.2883301
-0.74886346 -2.869858 -6.1787095
-0.75234616 -2.7954199 -6.1475863
-0.69544566 -2.6516659 -6.1614656
-0.65861952 -2.5277052 -6.1588755
-0.53141594 -2.2966642 -6.2194195
-0.63702142 -2.866477 -6.2586174
-0.75171888 -2.9001513 -6.14503
-0.71649814 -2.7861915 -6.1426458
-0.65932083 -2.6423035 -6.1559086
-0.61292124 -2.5078506 -6.1595879
-0.63323224 -2.890178 -6.2289448
-0.68007672 -2.8553736 -6.166626
-0.68380928 -2.7804217 -6.1350317
-0.61673343 -2.6263294 -6.1546059
-0.58603573 -2.5087733 -6.146431
-0.61988091 -2.9042728 -6.2066107
-0.65381217 -2.8564634 -6.1541672
-0.64784563 -2.7714658 -6.1294508
-0.58365762 -2.6206329 -6.1460767
-0.54646659 -2.4960964 -6.1419306
-0.59677315 -2.9088378 -6.1914454
-0.61770594 -2.8479106 -6.1485705
-0.61509109 -2.7659531 -6.1212306
-0.56352782 -2.6285002 -6.1282349
-0.54851878 -2.5279732 -6.1084456
-0.56706715 -2.907124 -6.1808834
-0.57489228 -2.8330278 -6.1473217
-0.59219921 -2.7704461 -6.1058493
-0.54355264 -2.6364267 -6.1102467
-0.54132891 -2.5495741 -6.0816221
-0.53401339 -2.9023523 -6.1724348
-0.53527939 -2.8215494 -6.1433372
-0.55616081 -2.7618737 -6.0993648
-0.53686261 -2.6577835 -6.0832481
-0.55071354 -2.58816 -6.0439854
-0.330428 -2.8228054 -6.3117514
-0.49415421 -2.8913884 -6.1683941
-0.49893451 -2.8134513 -6.1366744
-0.53674424 -2.7698262 -6.0812945
-0.53049409 -2.6791313 -6.0562582
-0.55081069 -2.6164837 -6.0129805
-0.56919646 -2.5503354 -5.9703751
-0.34100997 -2.859138 -6.2709293
-0.45420027 -2.8805866 -6.1639729
-0.45576692 -2.7990758 -6.1342378
-0.50741577 -2.7680323 -6.0697746
-0.52777052 -2.7037952 -6.0271025
-0.54801702 -2.6413822 -5.9841881
-0.56957304 -2.5789104 -5.9398675
-0.34520257 -2.8892066 -6.2350483
-0.40040684 -2.8573811 -6.1684256
-0.41587567 -2.7880826 -6.1291189
-0.46461606 -2.7533104 -6.0668387
-0.51537526 -2.7184787 -6.0044746
-0.55882668 -2.6797457 -5.9470243
-0.57362211 -2.6108689 -5.9073987
-0.60542691 -2.5602524 -5.8572783
-0.32892799 -2.9007721 -6.2133694
-0.36019361 -2.846941 -6.1631594
-0.30050719 -2.7070045 -6.1729565
-0.34356618 -2.6640065 -6.1138806
-0.4964906 -2.7265663 -5.986064
-0.55682683 -2.7045527 -5.9184179
-0.57810485 -2.6427655 -5.8750606
-0.60330212 -2.5855052 -5.8294411
-0.32289815 -2.9217839 -6.1841288
-0.29853833 -2.8181367 -6.1706567
-0.25950801 -2.6967494 -6.166132
-0.13211584 -2.4912271 -6.2155175
-0.46037543 -2.7184148 -5.9776411
-0.54131854 -2.7161055 -5.8976812
-0.57593 -2.6679728 -5.8464336
-0.59450746 -2.6039941 -5.8051329
-0.40564418 -2.3150508 -5.8833666
-0.30004644 -2.927295 -6.1669064
-0.25104737 -2.8018529 -6.1689911
-0.41107416 -2.6970401 -5.9777379
-0.5264678 -2.7274966 -5.8773026
-0.57456458 -2.6929498 -5.8183193
-0.60956013 -2.6464896 -5.7676716
-0.53687048 -2.4849713 -5.777441
-0.20989215 -2.875011 -6.1928596
-0.4982487 -2.7255702 -5.8649364
-0.56683314 -2.7111056 -5.7942171
-0.59857345 -2.6612778 -5.7458363
-0.63056123 -2.6121395 -5.695549
-0.69170082 -2.570838 -5.303112
-0.45984054 -2.7137613 -5.8583374
-0.55599713 -2.7258768 -5.7720556
-0.59449816 -2.6829638 -5.7201476
-0.61328495 -2.6199913 -5.6776342
-0.5486449 -2.4653533 -5.6822972
-0.67679954 -2.5786214 -5.2852688
-0.37335098 -2.655622 -5.8791723
-0.53181231 -2.7271581 -5.7575817
-0.59072804 -2.7046328 -5.6944885
-0.59948623 -2.6313801 -5.6577654
-0.65935361 -2.611414 -5.5946827
-0.66870689 -2.593677 -5.2644496
-0.71833277 -2.5639024 -5.2095499
-0.50429523 -2.7251585 -5.7448111
-0.59401822 -2.7331285 -5.6651387
-0.59256434 -2.6497555 -5.6341944
-0.63609111 -2.6121535 -5.5803785
-0.6641748 -2.6123459 -5.2421885
-0.69738662 -2.5643277 -5.1945143
-0.41160893 -2.6594405 -5.767767
-0.58069944 -2.7444997 -5.6451111
-0.62960374 -2.7132111 -5.5873823
-0.62288034 -2.6235399 -5.5606689
-0.68318248 -2.6053967 -5.4991741
-0.66661263 -2.6381979 -5.2171564
-0.68316627 -2.5721231 -5.1766167
-0.28721118 -2.5640154 -5.8065557
-0.55049479 -2.7388787 -5.6341057
-0.62006557 -2.7280095 -5.5658293
-0.61654305 -2.6419826 -5.5374479
-0.66050494 -2.6060274 -5.4847598
-0.66260684 -2.6568308 -5.1949611
-0.67243147 -2.5835986 -5.1572962
-0.74266052 -2.5769596 -5.095315
-0.52716708 -2.740171 -5.6192122
-0.60055852 -2.7324705 -5.5494761
-0.61046553 -2.6604223 -5.5142241
-0.64455092 -2.6138501 -5.4668636
-0.65884638 -2.6754537 -5.17278
-0.66858125 -2.602355 -5.1353168
-0.71914971 -2.5736248 -5.0813494
-0.35981572 -2.59886 -5.6798687
-0.58879387 -2.7434816 -5.5304227
-0.60881507 -2.6819544 -5.4902353
-0.63621271 -2.6284194 -5.4465055
-0.6656462 -2.5740089 -5.4005747
-0.65601158 -2.6936698 -5.151526
-0.66901946 -2.6243262 -5.1129837
-0.70633912 -2.5809996 -5.0643926
-0.73123407 -2.5239165 -5.0211658
-0.57298338 -2.7514868 -5.5120893
-0.61005092 -2.7073469 -5.4637275
-0.63401401 -2.6504698 -5.4220066
-0.65014565 -2.5818391 -5.3826437
-0.64930665 -2.7087078 -5.1306944
-0.6656605 -2.6430502 -5.0910616
-0.69299924 -2.5888028 -5.046443
-0.73776972 -2.5539098 -4.9964633
-0.55042815 -2.7526922 -5.4970112
-0.6013782 -2.722266 -5.4422092
-0.63885224 -2.6795549 -5.3943853
-0.65479422 -2.6112065 -5.3554239
-0.63937581 -2.7201996 -5.1111326
-0.6693356 -2.6689658 -5.066689
-0.68986988 -2.6076 -5.0248499
-0.7280786 -2.5653431 -4.9775357
-0.54182708 -2.7676404 -5.4750671
-0.5826416 -2.7267909 -5.425499
-0.63387549 -2.6980195 -5.3715801
-0.65309632 -2.6333694 -5.3313475
-0.61926579 -2.7210875 -5.095314
-0.66989923 -2.6912394 -5.0436363
-0.69371629 -2.6336679 -5.0009565
-0.73518872 -2.5952508 -4.9530153
-0.56402457 -2.7313805 -5.4086323
-0.63937318 -2.7270107 -5.3441563
-0.64831722 -2.6519437 -5.3088069
-0.60271728 -2.7255857 -5.0780621
-0.65702772 -2.6991453 -5.025425
-0.69447482 -2.6560535 -4.9783096
-0.73594141 -2.6177282 -4.9308124
-0.77727592 -2.5806389 -4.880928
-0.53514087 -2.7256825 -5.3963289
-0.61783206 -2.7279196 -5.3290396
-0.65055394 -2.6776199 -5.28334
-0.58629251 -2.7301426 -5.060667
-0.6443069 -2.7070913 -5.0071144
-0.69889545 -2.6820307 -4.9546099
-0.74030888 -2.6438465 -4.9076104
-0.75844216 -2.5808554 -4.8653059
-0.50976026 -2.7235446 -5.3821917
-0.60669827 -2.7393899 -5.309226
-0.64970613 -2.6997051 -5.2594147
-0.56999218 -2.7347574 -5.0431299
-0.63173759 -2.7150764 -4.9887052
-0.69678473 -2.7007256 -4.933218
-0.71465707 -2.6369405 -4.8939276
-0.74302256 -2.5848551 -4.8485174
-0.58538055 -2.740433 -5.2937832
-0.64230895 -2.7146878 -5.2383986
-0.61238289 -2.7159882 -4.9724598
-0.69148254 -2.7157979 -4.9129343
-0.71947432 -2.6630363 -4.8707609
-0.72104859 -2.5815067 -4.8335333
-0.74834764 -2.525434 -4.7898598
-0.56067991 -2.7380815 -5.2796068
-0.62826419 -2.7226205 -5.2201691
-0.59312332 -2.7169747 -4.9560328
-0.68294549 -2.7272749 -4.8936949
-0.71778691 -2.6817875 -4.8497171
-0.70249116 -2.5819414 -4.8173833
-0.72668493 -2.5219717 -4.774642
-0.54615092 -2.7464302 -5.2604122
-0.61747372 -2.7343149 -5.1999888
-0.58065462 -2.7253158 -4.9367771
-0.67429221 -2.7389684 -4.8739476
-0.7330848 -2.7188983 -4.8233423
-0.67730153 -2.5750809 -4.8029146
-0.70508981 -2.518599 -4.7592101
-0.60029054 -2.7388148 -5.182929
-0.6730479 -2.7576394 -4.8525801
-0.73192704 -2.7375684 -4.8024702
-0.65862072 -2.5758779 -4.7859116
-0.67994845 -2.5117917 -4.7439594
-0.56583679 -2.7258697 -5.1724377
-0.66159284 -2.765584 -4.8342237
-0.71725464 -2.7417469 -4.7853961
-0.71152949 -2.6535301 -4.7505875
-0.68189085 -2.5346003 -4.7222443
-0.5523169 -2.7340274 -5.153657
-0.6572758 -2.7806838 -4.8138371
-0.74408591 -2.7892857 -4.7571621
-0.63575554 -2.5919197 -4.7488375
-0.63710058 -2.5055141 -4.7119746
-0.51580012 -2.7407427 -4.8656893
-0.6321224 -2.7744789 -4.79914
-0.66058671 -2.721467 -4.7580376
-0.63479841 -2.6109366 -4.7276335
-0.6932677 -2.5874989 -4.6774597
-0.49722326 -2.7421322 -4.8482833
-0.61405683 -2.7754664 -4.7823267
-0.63228607 -2.7115178 -4.743906
-0.60321462 -2.5971885 -4.713872
-0.55737209 -2.4590468 -4.6876068
-0.48233056 -2.7470765 -4.8297415
-0.57136941 -2.7518044 -4.7716761
-0.62144423 -2.7196016 -4.7251978
-0.57851696 -2.5908432 -4.6981645
-0.55305469 -2.4747064 -4.6668863
-0.44603539 -2.7312474 -4.8166718
-0.54278886 -2.7424352 -4.7570105
-0.60375834 -2.7205753 -4.7080703
-0.56078231 -2.5918465 -4.6806383
-0.55915678 -2.5013676 -4.6439762
-0.64351773 -2.5033922 -4.5889072
-0.51779866 -2.7367089 -4.7411766
-0.5721333 -2.7073715 -4.6940155
-0.55354965 -2.6037531 -4.6606646
-0.55186737 -2.5133371 -4.6240187
-0.66004264 -2.5411334 -4.5649142
-0.49286795 -2.731092 -4.7250795
-0.55461001 -2.7085257 -4.676455
-0.53954399 -2.6084723 -4.6421204
-0.54132926 -2.5216727 -4.6047029
-0.59580004 -2.4900384 -4.5564003
-0.48590434 -2.7430539 -4.7046328
-0.53366125 -2.7062075 -4.6594896
-0.52915978 -2.6168356 -4.6227336
-0.52750838 -2.5264008 -4.585968
-0.59916043 -2.5130219 -4.5348625
-0.47912359 -2.7550302 -4.684145
-0.51279938 -2.703979 -4.6423092
-0.53643143 -2.6431453 -4.5997949
-0.50001895 -2.5166569 -4.5696764
-0.53473043 -2.4623928 -4.5252538
-0.47613001 -2.7704949 -4.6628451
-0.50981426 -2.7194629 -4.621294
-0.61769819 -2.7444313 -4.5628853
-0.48057222 -2.7928824 -4.6400518
-0.49632657 -2.7243967 -4.6023903
-0.61869717 -2.7632904 -4.5419798
-0.47801149 -2.8083148 -4.6188116
-0.48655522 -2.7328861 -4.5826812
-0.47201777 -2.8202944 -4.5982866
-0.49489677 -2.7588849 -4.5596075
-0.46985388 -2.835721 -4.5770445
-0.48189747 -2.7639036 -4.5404849
-0.45325661 -2.8374367 -4.5584526
-0.47987127 -2.7793996 -4.5194039
6.2112484 -2.6988053 -6.27073
6.2930174 -2.704154 -6.2240233
6.3361626 -2.721828 -6.1679296
6.3549089 -2.7470918 -6.1062279
6.3683705 -2.7738979 -6.0433321
6.3765287 -2.8022063 -5.9793358
6.343502 -2.6509216 -5.9058905
6.3841839 -2.8305404 -5.9152594
6.3415518 -2.6822743 -5.840229
6.4057999 -2.8546233 -5.8538051
6.3438773 -2.7121031 -5.7754774
6.3456879 -2.7419281 -5.7107143
6.1835442 -2.8963346 -6.2657766
6.3662357 -2.7658677 -5.6491499
6.3115721 -2.622014 -5.5713224
6.2747469 -2.8999455 -6.2215023
6.3814936 -2.7913616 -5.5865684
6.2883768 -2.6595314 -5.5031257
6.4186707 -2.8885684 -6.187736
6.3818002 -2.8212578 -5.5215788
6.2886305 -2.6893375 -5.4387541
6.3864222 -2.8497131 -5.457304
6.2787628 -2.7221382 -5.3730364
6.3325653 -2.8952017 -5.3848143
6.2972317 -2.7459416 -5.3113108
6.2911568 -2.7772169 -5.2462831
6.2047114 -2.6425118 -5.1660461
6.2845707 -2.8084521 -5.1813316
6.2412682 -2.6599379 -5.1066208
6.2678308 -2.8425469 -5.1153536
6.2294025 -2.6927702 -5.0415697
6.1444311 -2.9081595 -5.0381169
6.2602324 -2.7119584 -4.9810238
6.234272 -2.56112 -4.9042568
6.2907157 -2.8933623 -4.9898987
6.27139 -2.7372923 -4.9182563
6.2405639 -2.5878992 -4.8411512
6.3352451 -2.9089832 -4.9301491
6.2676444 -2.7671313 -4.8540621
6.4807177 -2.5386703 -4.7968364
6.3793287 -2.924845 -4.869813
6.287446 -2.7896037 -4.7918596
6.4239531 -2.5861545 -4.7274303
6.4607553 -2.7655809 -4.7409678
6.3666277 -2.6333318 -4.6587286
6.3593225 -2.8247685 -4.6689539
-7.6863871 -2.449919 -4.5550842
-7.5985336 -2.3451157 -4.5084424
-7.6242404 -2.4543552 -4.6066589
-7.4917183 -2.3713863 -4.5574579
-7.4160728 -2.2635591 -4.5129647
-7.5709677 -2.4549408 -4.658102
-7.4569559 -2.3644001 -4.6091943
-7.3949957 -2.2504909 -4.5649486
-7.7388411 -2.5012722 -4.7671604
-7.5265193 -2.4516206 -4.7095985
-7.4263959 -2.3554041 -4.6609006
-7.3601804 -2.2440195 -4.6160378
-7.5982738 -2.53877 -4.811831
-7.436728 -2.4689386 -4.7572546
-7.4044914 -2.3422513 -4.7129803
-7.3072653 -2.2464182 -4.6656661
-7.4895644 -2.5628824 -4.8575277
-7.4008842 -2.4618716 -4.8082986
-7.4001245 -2.3206277 -4.7663054
-7.325242 -2.2137766 -4.7198195
-7.543396 -2.5155268 -4.9173508
-7.5038743 -2.3908043 -4.8714867
-7.3819451 -2.3053994 -4.8186188
-7.2983618 -2.2031226 -4.7709074
-7.5604839 -2.4839566 -4.9744129
-7.5656161 -2.337976 -4.932375
-7.3678489 -2.2880569 -4.871263
-7.2578974 -2.1991928 -4.820662
-7.5590525 -2.4603338 -5.0299282
-7.5283399 -2.3307481 -4.9840908
-7.4732094 -2.2124927 -4.9356751
-7.5571542 -2.4366744 -5.0856113
-7.5219588 -2.3089633 -5.0389423
-7.5547886 -2.4129791 -5.1414571
-7.5062499 -2.291369 -5.0928426
-7.5474958 -2.3912904 -5.1968789
-7.4812841 -2.278019 -5.1456051
-7.5264239 -2.3757372 -5.2505503
-7.4603887 -2.2626028 -5.1988029
-7.5182729 -2.3540452 -5.3060665
-7.6145306 -2.4320309 -5.4219165
-7.5052557 -2.3344073 -5.3609953
-7.5609503 -2.4303536 -5.4710712
-7.4918132 -2.3147736 -5.4159493
-7.5557704 -2.4067035 -5.5281367
-7.4823418 -2.2930603 -5.4716635
-7.5368462 -2.5322146 -5.6237597
-7.5280857 -2.3931327 -5.5813513
-7.4680376 -2.2734308 -5.5266876
-7.5176086 -2.5146933 -5.678565
-7.504446 -2.3775921 -5.6352258
-7.5067673 -2.4932635 -5.7350969
-7.497942 -2.3539391 -5.6924305
-7.495472 -2.4718249 -5.7917013
-7.4865885 -2.3323078 -5.7488761
-7.4793477 -2.4523637 -5.8474255
-7.4704332 -2.3127258 -5.8044686
-7.4715066 -2.4289265 -5.9051123
-7.4495134 -2.2952216 -5.8591127
-7.722991 -2.581213 -6.1130166
-7.6260881 -2.4766374 -6.0460753
-7.4675198 -2.4034624 -5.9639335
-7.4022727 -2.2901928 -5.9078054
-7.5824065 -2.6137748 -6.140027
-7.464602 -2.5209935 -6.0677924
-7.4370532 -2.390029 -6.0166903
-7.4422259 -2.6468458 -6.1653075
-7.3816719 -2.5308745 -6.1073179
-7.4105549 -2.3746419 -6.0703306
-7.4272647 -2.221972 -6.0330992
-7.2512732 -2.5625601 -6.1334624
-7.3750963 -2.3633628 -6.1216369
-7.383225 -2.2150061 -6.0824232
-7.3191595 -2.5042892 -6.2115049
-7.3007922 -2.3705099 -6.1625009
-7.3261585 -2.2144885 -6.1280646
-7.5145874 -2.3864527 -6.3265448
-7.5208387 -2.23669 -6.2827654
-7.2689457 -2.2141414 -6.173151
-0.75345469 -2.7676446 -4.6865888
-0.78050363 -2.8320272 -4.7725992
-0.7430321 -2.7657969 -4.6937256
-0.74170077 -2.669539 -4.6624141
-0.77509105 -2.8113735 -4.7837276
-0.75213188 -2.7944572 -4.7413502
-0.74187136 -2.7308519 -4.7063227
-0.73364818 -2.6581752 -4.6710458
-0.76239413 -2.8141055 -4.7903681
-0.74251497 -2.7878587 -4.7495418
-0.73098373 -2.7289791 -4.7135863
-0.71759337 -2.675323 -4.6753993
-0.61963344 -2.8331785 -4.5645204
-0.75670707 -2.7934647 -4.8014817
-0.73282182 -2.7812755 -4.7576876
-0.72138846 -2.7223983 -4.7215676
-0.71592712 -2.6402314 -4.6875162
-0.61985385 -2.7931983 -4.5755382
-0.5927465 -2.7950206 -4.5310941
-0.74777949 -2.7821412 -4.8109522
-0.72142005 -2.7793708 -4.7651072
-0.71276248 -2.711055 -4.7304754
-0.70986986 -2.6193457 -4.6976986
-0.61712426 -2.7627528 -4.5856094
-0.5948537 -2.7452509 -4.5426784
-0.73902512 -2.7708771 -4.8202095
-0.70624256 -2.7916679 -4.7696648
-0.70430386 -2.699769 -4.7391787
-0.69884288 -2.6175387 -4.7047567
-0.61442298 -2.7323377 -4.5955763
-0.5817396 -2.7581415 -4.5471764
-0.59439784 -2.5915678 -4.5189123
-0.73151231 -2.7549362 -4.8303847
-0.69376373 -2.7945755 -4.7758527
-0.69831181 -2.6790185 -4.7494855
-0.69403934 -2.5919504 -4.7154965
-0.62198466 -2.7632229 -4.6429195
-0.60795289 -2.7163205 -4.6037388
-0.57442415 -2.7469573 -4.5543213
-0.57459509 -2.633559 -4.5206699
-0.72385371 -2.7390015 -4.8405533
-0.68388444 -2.7880778 -4.7837334
-0.68960822 -2.6677499 -4.758153
-0.67790306 -2.6092272 -4.7194295
-0.61650896 -2.7424552 -4.6520896
-0.59901786 -2.7099187 -4.6106405
-0.56134069 -2.7599022 -4.5586367
-0.56051183 -2.6514018 -4.5246811
-0.71473128 -2.7277677 -4.8497458
-0.67135727 -2.7910345 -4.7897625
-0.68079859 -2.6564929 -4.7667913
-0.65696895 -2.6456084 -4.7201381
-0.61087203 -2.7216885 -4.6612716
-0.58539981 -2.7227607 -4.6149492
-0.54943055 -2.7680535 -4.5634093
-0.5530237 -2.6402183 -4.5315824
-0.70419681 -2.7212429 -4.8579297
-0.66263378 -2.7798536 -4.7984381
-0.66817033 -2.6594849 -4.772862
-0.63384056 -2.6915872 -4.7190642
-0.60038847 -2.7200818 -4.667614
-0.57297558 -2.7308271 -4.6197867
-0.54196775 -2.7569194 -4.5704021
-0.54651654 -2.6241996 -4.538969
-0.69358623 -2.7147365 -4.8660612
-0.65505642 -2.7639613 -4.8080063
-0.6530934 -2.6720006 -4.7771311
-0.61456162 -2.7233245 -4.7200961
-0.58871251 -2.7232873 -4.6731691
-0.55945283 -2.7437344 -4.6238699
-0.5322305 -2.7554567 -4.5761943
-0.53883255 -2.6130347 -4.5458269
-0.68289983 -2.7082477 -4.8741393
-0.64733827 -2.7480752 -4.817564
-0.6392808 -2.6798024 -4.782136
-0.60133529 -2.731252 -4.7249184
-0.57817215 -2.7217243 -4.6793718
-0.54598689 -2.7566752 -4.6278367
-0.52891755 -2.7250166 -4.5855041
-0.53314453 -2.5921805 -4.5537138
-0.67088914 -2.7064822 -4.881155
-0.64069879 -2.727468 -4.8280525
-0.62312019 -2.6971426 -4.7852817
-0.59160799 -2.7248847 -4.7320571
-0.56309837 -2.7393687 -4.682548
-0.53585857 -2.7552004 -4.6337061
-0.5285784 -2.6800656 -4.5966702
-0.52936667 -2.5616241 -4.5626783
-0.66130167 -2.6953263 -4.8901339
-0.63388449 -2.7068634 -4.8385482
-0.60939717 -2.7050135 -4.7900496
-0.58067143 -2.7233117 -4.7383308
-0.55144203 -2.7426546 -4.6878343
-0.52461886 -2.758564 -4.6388311
-0.52689266 -2.6399326 -4.6073141
-0.52436876 -2.5359178 -4.571135
-0.6491766 -2.6936033 -4.8970199
-0.62689537 -2.6862626 -4.8490491
-0.59454942 -2.717674 -4.7938142
-0.56632584 -2.7361 -4.7420583
-0.54196906 -2.7363644 -4.6945534
-0.51762784 -2.7426696 -4.646637
-0.52493596 -2.599786 -4.6180291
-0.52019387 -2.5053546 -4.5801635
-0.6489765 -2.644784 -4.914216
-0.61973131 -2.6656654 -4.8595538
-0.58204162 -2.7208512 -4.7992592
-0.55204308 -2.7489238 -4.7456627
-0.5335077 -2.7252862 -4.7019916
-0.51051211 -2.7267823 -4.6544304
-0.52169102 -2.5644677 -4.6281834
-0.51679862 -2.4699285 -4.5897851
-0.64249122 -2.6195118 -4.9262896
-0.61124158 -2.6498117 -4.8690801
-0.57289499 -2.7097683 -4.8073521
-0.54109979 -2.7474289 -4.751677
-0.52494967 -2.714221 -4.7093978
-0.51668584 -2.6481802 -4.6714067
-0.52120876 -2.5146115 -4.6403022
-0.51316762 -2.4344957 -4.5994539
-0.64043498 -2.5753734 -4.9426136
-0.60374486 -2.6292262 -4.8795776
-0.55812478 -2.7225213 -4.810802
-0.52474546 -2.7698886 -4.7533584
-0.5204761 -2.683938 -4.7199097
-0.52233195 -2.5695322 -4.6885858
-0.51546061 -2.4889619 -4.6492863
-0.51025724 -2.3941936 -4.6097431
-0.63230467 -2.5548134 -4.9536939
-0.59272504 -2.6228769 -4.8870764
-0.54668319 -2.7210104 -4.8169184
-0.51275861 -2.7732368 -4.7583299
-0.51269066 -2.6680801 -4.7280779
-0.5174405 -2.539129 -4.6987228
-0.51535863 -2.434231 -4.6622086
-0.75954509 -2.7344649 -4.8845897
-0.62174314 -2.5437021 -4.9626155
-0.53627837 -2.7147532 -4.8239026
-0.51536751 -2.7095382 -4.7754011
-0.52504015 -2.5559964 -4.7522554
-0.5064187 -2.537709 -4.7044969
-0.50532794 -2.4279695 -4.6686158
-0.7488091 -2.7278786 -4.8931518
-0.52159238 -2.7275982 -4.8270388
-0.5072549 -2.6937361 -4.7838368
-0.51667625 -2.5401158 -4.7605534
-0.49439558 -2.5411434 -4.7094617
-0.49994162 -2.3974707 -4.6783199
-0.4789457 -2.3851945 -4.6271553
-0.75744611 -2.7401156 -4.948595
-0.73665035 -2.7259791 -4.9006257
-0.5121578 -2.7166128 -4.8348365
-0.50102961 -2.6683536 -4.7940283
-0.50425959 -2.543509 -4.7655578
-0.48785949 -2.4009414 -4.6833034
-0.74628478 -2.7335505 -4.9572878
-0.7244485 -2.7241039 -4.9080243
-0.49650708 -2.7342939 -4.8368011
-0.50751221 -2.5806108 -4.815877
-0.49184358 -2.5469282 -4.770474
-0.7440784 -2.769134 -5.0082083
-0.73637974 -2.7223577 -4.9670501
-0.71220398 -2.7222526 -4.9153476
-0.50262654 -2.5456085 -4.8280072
-0.73659384 -2.7487464 -5.0205688
-0.72372317 -2.7204785 -4.9745054
-0.69991732 -2.7204256 -4.9225945
-0.49651617 -2.5154028 -4.8392658
-0.74211693 -2.7527747 -5.0804696
-0.72759485 -2.7329874 -5.0317187
-0.71102405 -2.7186244 -4.9818821
-0.68504357 -2.727982 -4.9276109
-0.73272288 -2.7370784 -5.0919533
-0.71713775 -2.7218657 -5.041625
-0.69828302 -2.716795 -4.9891796
-0.67271078 -2.7262084 -4.9346848
-0.72186607 -2.7259946 -5.102109
-0.70399523 -2.7200201 -5.049015
-0.68550062 -2.7149909 -4.996398
-0.66033781 -2.7244592 -4.9416814
-0.7393533 -2.6994703 -5.1696663
-0.70832002 -2.7241352 -5.1095834
-0.68954587 -2.7228336 -5.0550752
-0.67143309 -2.7178724 -5.0023589
-0.64670658 -2.7274215 -4.9474931
-0.72270095 -2.7067258 -5.1745272
-0.69473219 -2.7223027 -5.1169729
-0.67633986 -2.7210424 -5.0622911
-0.65858865 -2.716121 -5.0094075
-0.63547456 -2.7210338 -4.9554434
-0.86795801 -2.8186073 -6.211585
-0.90246499 -2.6320329 -6.2575293
-0.71507943 -2.7639053 -5.2191629
-0.70608556 -2.7140195 -5.1792574
-0.67985737 -2.725107 -5.1229367
-0.66309351 -2.7192774 -5.0694242
-0.64449751 -2.7190609 -5.0151777
-0.62535071 -2.7099731 -4.9644632
-0.8167243 -2.9075744 -6.1615181
-0.84443861 -2.7421155 -6.1965189
-0.86598903 -2.594902 -6.2140493
-0.90536523 -2.3844368 -6.263711
-0.71639085 -2.6089814 -5.788095
-0.70337641 -2.7529511 -5.2296634
-0.69075876 -2.7167695 -5.185276
-0.66375482 -2.7325554 -5.1274433
-0.64739144 -2.7268198 -5.073915
-0.63159347 -2.7173626 -5.0220551
-0.61628103 -2.6942329 -4.9745808
-0.79761219 -2.901484 -6.1731229
-0.81326795 -2.7720671 -6.1854706
-0.82446736 -2.6576979 -6.183876
-0.84348327 -2.5136495 -6.1962714
-0.8601746 -2.372283 -6.202507
-0.72718555 -2.5822935 -5.8738337
-0.65999997 -2.7498226 -5.7271781
-0.71433985 -2.7376809 -5.2973518
-0.69405806 -2.7329094 -5.2431145
-0.67543125 -2.719552 -5.191186
-0.65131092 -2.7261961 -5.1359081
-0.6352936 -2.7204688 -5.0821519
-0.62216067 -2.701679 -5.0325055
-0.60591817 -2.6831999 -4.9835305
-0.77208751 -2.9152813 -6.1715746
-0.7874527 -2.7860274 -6.1843014
-0.79971242 -2.6677601 -6.1855345
-0.81231707 -2.5443738 -6.1861601
-0.81921911 -2.4365959 -6.1741562
-0.68982089 -2.6489732 -5.8473959
-0.64009261 -2.7567005 -5.7305746
-0.7020179 -2.726778 -5.3080993
-0.67960131 -2.7310967 -5.2505226
-0.65889275 -2.7269545 -5.1955471
-0.63641465 -2.7290936 -5.1415639
-0.62311912 -2.7141387 -5.0903249
-0.61027592 -2.6953518 -5.0404778
-0.60108531 -2.6486857 -4.9982209
-0.75414604 -2.9053011 -6.1855297
-0.75936574 -2.8080928 -6.1777897
-0.77266175 -2.6860163 -6.1819973
-0.78270334 -2.5710666 -6.1781721
-0.79074472 -2.4594321 -6.1690378
-0.69823277 -2.6284268 -5.9325857
-0.66215956 -2.681448 -5.8379116
-0.62906897 -2.7289824 -5.7507019
-0.69921041 -2.7580082 -5.3612022
-0.68957102 -2.7158942 -5.3187952
-0.6638912 -2.7338698 -5.2563205
-0.64596701 -2.7206254 -5.2041268
-0.62151933 -2.7320228 -5.1471138
-0.6097182 -2.7124786 -5.0971246
-0.60284549 -2.6703455 -5.0533361
-0.60594559 -2.5718486 -5.0234547
-0.73605311 -2.8953505 -6.1994004
-0.73393649 -2.8221822 -6.1761551
-0.74818146 -2.696197 -6.1832333
-0.75689065 -2.5854845 -6.1772346
-0.76367593 -2.4781785 -6.1660376
-0.70302713 -2.6184502 -6.0153713
-0.65886933 -2.7030621 -5.9001093
-0.63594484 -2.7097049 -5.8303318
-0.60476744 -2.7532599 -5.7453914
-0.68646997 -2.747189 -5.3720803
-0.6757865 -2.7095578 -5.3278408
-0.65056717 -2.7275562 -5.2650666
-0.63296223 -2.7143197 -5.2126384
-0.60892141 -2.7257395 -5.1553402
-0.60193545 -2.6875935 -5.110435
-0.60187042 -2.6172774 -5.0736856
-0.59708661 -2.5514128 -5.0348034
-0.71780908 -2.8854308 -6.2131848
-0.71217293 -2.8242521 -6.1820483
-0.72381425 -2.7064342 -6.1842723
-0.73010486 -2.604084 -6.1736212
-0.73121536 -2.5178154 -6.1508331
-0.66323817 -2.6923261 -5.9816217
-0.63886869 -2.7055283 -5.9055958
-0.61753738 -2.7079692 -5.837863
-0.59443587 -2.7212498 -5.7675428
-0.70009661 -2.7167604 -5.4491987
-0.67481434 -2.7318935 -5.3845825
-0.6607281 -2.7077758 -5.3352032
-0.63364804 -2.7349544 -5.2691216
-0.61412752 -2.73101 -5.2137337
-0.59399098 -2.7287278 -5.1606979
-0.59281105 -2.6673641 -5.1224275
-0.59168744 -2.6016231 -5.0841107
-0.5869711 -2.5356917 -5.0449581
-0.70172483 -2.8675797 -6.2321897
-0.68700325 -2.8384557 -6.1800094
-0.69731319 -2.7248802 -6.1800532
-0.70131558 -2.6309934 -6.164834
-0.67404145 -2.653389 -6.0800152
-0.64159167 -2.6989479 -5.9847941
-0.61675084 -2.7165456 -5.9063973
-0.59699738 -2.7148635 -5.8408661
-0.57445025 -2.7282751 -5.7704577
-0.70008719 -2.7321849 -5.5099926
-0.68300366 -2.7193854 -5.4550714
-0.65941989 -2.7301092 -5.3919845
-0.64563 -2.7060239 -5.3424711
-0.61677337 -2.7423911 -5.2730446
-0.60106754 -2.7247627 -5.2220564
-0.59235954 -2.6762266 -5.1828771
-0.59114099 -2.6145587 -5.143775
-0.58243012 -2.5812998 -5.0957718
-0.70117545 -2.7939839 -6.288456
-0.66089404 -2.856751 -6.1751504
-0.67213202 -2.7393126 -6.1781368
-0.66851324 -2.6744766 -6.1458592
-0.63348746 -2.7307825 -6.0421782
-0.61789918 -2.7140443 -5.9831057
-0.59786236 -2.7148433 -5.9138637
-0.5795877 -2.7089062 -5.8503575
-0.56056786 -2.7093105 -5.7861166
-0.77867949 -2.4630501 -5.6947947
-0.68382537 -2.7303419 -5.5176744
-0.66710126 -2.7175803 -5.4625926
-0.64398587 -2.7283559 -5.3992891
-0.62819487 -2.713372 -5.3463845
-0.60333461 -2.7361639 -5.2815156
-0.59014958 -2.7093394 -5.2332864
-0.58590257 -2.6422188 -5.1994963
-0.58149791 -2.5943317 -5.1558099
-0.56347752 -2.6031427 -5.095952
-0.63935375 -2.8589745 -6.1805124
